ply
format ascii 1.0
comment Created by Open3D
element vertex 3201
property double x
property double y
property double z
end_header
115 6 -17.8495
116 6 -17.8495
117 6 -17.8495
118 6 -17.8495
119 6 -17.8495
0 7 -17.8495
1 7 -17.8495
2 7 -17.8495
3 7 -17.8495
4 7 -17.8495
5 7 -17.8495
6 7 -17.8495
7 7 -17.8495
8 7 -17.8495
9 7 -17.8495
10 7 -17.8495
11 7 -17.8495
12 7 -17.8495
13 7 -17.8495
14 7 -17.8495
15 7 -17.8495
16 7 -17.8495
17 7 -17.8495
18 7 -17.8495
19 7 -17.8495
20 7 -17.8495
21 7 -17.8495
22 7 -17.8495
23 7 -17.8495
24 7 -17.8495
25 7 -17.8495
26 7 -17.8495
27 7 -17.8495
28 7 -17.8495
29 7 -17.8495
30 7 -17.8495
31 7 -17.8495
32 7 -17.8495
33 7 -17.8495
34 7 -17.8495
35 7 -17.8495
36 7 -17.8495
37 7 -5.79692
38 7 -5.2348
39 7 -4.63761
40 7 -4.20042
41 7 -3.84255
42 7 -3.35314
43 7 -2.96111
44 7 -2.56568
45 7 -2.22158
46 7 -1.74564
47 7 -17.8495
48 7 -17.8495
49 7 -17.8495
50 7 -17.8495
51 7 -17.8495
52 7 -17.8495
53 7 -17.8495
54 7 -17.8495
55 7 -17.8495
56 7 -17.8495
57 7 -17.8495
58 7 -17.8495
59 7 -17.8495
60 7 -17.8495
61 7 -17.8495
62 7 -17.8495
63 7 -17.8495
64 7 -17.8495
65 7 -17.8495
66 7 -17.8495
67 7 -17.8495
68 7 -17.8495
69 7 -17.8495
70 7 -17.8495
71 7 -17.8495
72 7 -17.8495
73 7 -17.8495
74 7 -17.8495
75 7 -17.8495
76 7 -17.8495
77 7 -17.8495
78 7 -17.8495
79 7 -17.8495
80 7 -17.8495
81 7 -17.8495
82 7 -17.8495
83 7 -17.8495
84 7 -17.8495
85 7 -17.8495
86 7 -17.8495
87 7 -17.8495
88 7 -17.8495
89 7 -17.8495
90 7 -17.8495
91 7 -17.8495
92 7 -17.8495
93 7 -17.8495
94 7 -17.8495
95 7 -17.8495
96 7 -17.8495
97 7 -17.8495
98 7 -17.8495
99 7 -17.8495
100 7 -17.8495
101 7 -17.8495
102 7 -17.8495
103 7 -17.8495
104 7 -17.8495
105 7 -17.8495
106 7 -17.8495
107 7 -17.8495
108 7 -17.8495
109 7 -17.8495
110 7 -17.8495
111 7 -17.8495
112 7 -17.8495
113 7 -17.8495
114 7 -17.8495
115 7 -17.8495
116 7 -17.8495
117 7 -17.8495
118 7 -17.8495
119 7 -17.8495
0 8 -17.8495
1 8 -17.8495
2 8 -17.8495
3 8 -17.8495
4 8 -17.8495
5 8 -17.8495
6 8 -17.8495
7 8 -17.8495
8 8 -17.8495
9 8 -17.8495
10 8 -17.8495
11 8 -17.8495
12 8 -17.8495
13 8 -17.8495
14 8 -17.8495
15 8 -17.8495
16 8 -17.8495
17 8 -17.8495
18 8 -17.8495
19 8 -17.8495
20 8 -17.8495
21 8 -17.8495
22 8 -17.8495
23 8 -17.8495
24 8 -17.8495
25 8 -17.8495
26 8 -17.8495
27 8 -17.8495
28 8 -17.8495
29 8 -17.8495
30 8 -17.8495
31 8 -17.8495
32 8 -17.8495
33 8 -6.85075
34 8 -6.69954
35 8 -6.50635
36 8 -6.11964
37 8 -5.65876
38 8 -5.11572
39 8 -4.59422
40 8 -4.02742
41 8 -3.54219
42 8 -3.1631
43 8 -2.89895
44 8 -2.624
45 8 -2.42094
46 8 -2.22232
47 8 -2.19756
48 8 -2.18917
49 8 -2.30181
50 8 -2.23286
51 8 -2.05686
52 8 -17.8495
53 8 -17.8495
54 8 -17.8495
55 8 -17.8495
56 8 -17.8495
57 8 -17.8495
58 8 -17.8495
59 8 -17.8495
60 8 -17.8495
61 8 -17.8495
62 8 -17.8495
63 8 -17.8495
64 8 -17.8495
65 8 -17.8495
66 8 -17.8495
67 8 -17.8495
68 8 -17.8495
69 8 -17.8495
70 8 -17.8495
71 8 -17.8495
72 8 -17.8495
73 8 -17.8495
74 8 -17.8495
75 8 -17.8495
76 8 -17.8495
77 8 -17.8495
78 8 -17.8495
79 8 -17.8495
80 8 -17.8495
81 8 -17.8495
82 8 -17.8495
83 8 -17.8495
84 8 -17.8495
85 8 -17.8495
86 8 -17.8495
87 8 -17.8495
88 8 -17.8495
89 8 -17.8495
90 8 -17.8495
91 8 -17.8495
92 8 -17.8495
93 8 -17.8495
94 8 -17.8495
95 8 -17.8495
96 8 -17.8495
97 8 -17.8495
98 8 -17.8495
99 8 -17.8495
100 8 -17.8495
101 8 -17.8495
102 8 -17.8495
103 8 -17.8495
104 8 -17.8495
105 8 -17.8495
106 8 -17.8495
107 8 -17.8495
108 8 -17.8495
109 8 -17.8495
110 8 -17.8495
111 8 -17.8495
112 8 -17.8495
113 8 -17.8495
114 8 -17.8495
115 8 -17.8495
116 8 -17.8495
117 8 -17.8495
118 8 -17.8495
119 8 -17.8495
0 9 -17.8495
1 9 -17.8495
2 9 -17.8495
3 9 -17.8495
4 9 -17.8495
5 9 -17.8495
6 9 -17.8495
7 9 -17.8495
8 9 -17.8495
9 9 -17.8495
10 9 -17.8495
11 9 -17.8495
12 9 -17.8495
13 9 -17.8495
14 9 -17.8495
15 9 -17.8495
16 9 -17.8495
17 9 -17.8495
18 9 -17.8495
19 9 -17.8495
20 9 -17.8495
21 9 -17.8495
22 9 -17.8495
23 9 -17.8495
24 9 -17.8495
25 9 -17.8495
26 9 -17.8495
27 9 -17.8495
28 9 -17.8495
29 9 -17.8495
30 9 -6.8169
31 9 -6.70365
32 9 -6.55122
33 9 -6.05579
34 9 -5.82788
35 9 -5.62516
36 9 -5.44479
37 9 -5.13509
38 9 -4.70293
39 9 -4.21128
40 9 -3.71829
41 9 -3.26758
42 9 -2.93106
43 9 -2.68147
44 9 -2.51029
45 9 -2.40437
46 9 -2.29005
47 9 -2.2647
48 9 -2.30908
49 9 -2.32188
50 9 -2.44257
51 9 -2.55475
52 9 -2.71096
53 9 -2.91766
54 9 -3.09917
55 9 -3.18437
56 9 -17.8495
57 9 -17.8495
58 9 -17.8495
59 9 -17.8495
60 9 -17.8495
61 9 -17.8495
62 9 -17.8495
63 9 -17.8495
64 9 -17.8495
65 9 -17.8495
66 9 -17.8495
67 9 -17.8495
68 9 -17.8495
69 9 -17.8495
70 9 -17.8495
71 9 -17.8495
72 9 -17.8495
73 9 -5.91178
74 9 -5.71636
75 9 -5.47007
76 9 -5.50192
77 9 -17.8495
78 9 -17.8495
79 9 -17.8495
80 9 -17.8495
81 9 -17.8495
82 9 -17.8495
83 9 -17.8495
84 9 -17.8495
85 9 -17.8495
86 9 -17.8495
87 9 -17.8495
88 9 -17.8495
89 9 -17.8495
90 9 -17.8495
91 9 -17.8495
92 9 -17.8495
93 9 -17.8495
94 9 -17.8495
95 9 -17.8495
96 9 -17.8495
97 9 -17.8495
98 9 -17.8495
99 9 -17.8495
100 9 -17.8495
101 9 -17.8495
102 9 -17.8495
103 9 -17.8495
104 9 -17.8495
105 9 -17.8495
106 9 -17.8495
107 9 -17.8495
108 9 -17.8495
109 9 -17.8495
110 9 -17.8495
111 9 -17.8495
112 9 -17.8495
113 9 -17.8495
114 9 -17.8495
115 9 -17.8495
116 9 -17.8495
117 9 -17.8495
118 9 -17.8495
119 9 -17.8495
0 10 -17.8495
1 10 -17.8495
2 10 -17.8495
3 10 -17.8495
4 10 -17.8495
5 10 -17.8495
6 10 -17.8495
7 10 -17.8495
8 10 -17.8495
9 10 -17.8495
10 10 -17.8495
11 10 -17.8495
12 10 -17.8495
13 10 -17.8495
14 10 -17.8495
15 10 -17.8495
16 10 -17.8495
17 10 -17.8495
18 10 -17.8495
19 10 -17.8495
20 10 -17.8495
21 10 -17.8495
22 10 -17.8495
23 10 -17.8495
24 10 -17.8495
25 10 -17.8495
26 10 -17.8495
27 10 -17.8495
28 10 -17.8495
29 10 -7.18284
30 10 -6.75642
31 10 -6.27224
32 10 -5.82583
33 10 -5.41901
34 10 -5.15079
35 10 -4.91632
36 10 -4.74596
37 10 -4.48323
38 10 -4.14977
39 10 -3.7553
40 10 -3.33571
41 10 -2.95635
42 10 -2.6776
43 10 -2.49806
44 10 -2.36617
45 10 -2.27684
46 10 -2.21736
47 10 -2.20484
48 10 -2.22482
49 10 -2.25277
50 10 -2.33001
51 10 -2.47195
52 10 -2.62829
53 10 -2.85423
54 10 -3.18979
55 10 -3.66288
56 10 -4.10454
57 10 -4.48832
58 10 -17.8495
59 10 -17.8495
60 10 -17.8495
61 10 -17.8495
62 10 -17.8495
63 10 -17.8495
64 10 -17.8495
65 10 -17.8495
66 10 -17.8495
67 10 -17.8495
68 10 -17.8495
69 10 -17.8495
70 10 -6.83823
71 10 -6.61756
72 10 -6.24484
73 10 -5.92363
74 10 -5.62528
75 10 -5.34882
76 10 -4.98526
77 10 -4.4942
78 10 -4.29542
79 10 -4.44567
80 10 -17.8495
81 10 -17.8495
82 10 -17.8495
83 10 -17.8495
84 10 -17.8495
85 10 -17.8495
86 10 -17.8495
87 10 -17.8495
88 10 -17.8495
89 10 -17.8495
90 10 -17.8495
91 10 -17.8495
92 10 -17.8495
93 10 -17.8495
94 10 -17.8495
95 10 -17.8495
96 10 -17.8495
97 10 -17.8495
98 10 -17.8495
99 10 -17.8495
100 10 -17.8495
101 10 -17.8495
102 10 -17.8495
103 10 -17.8495
104 10 -17.8495
105 10 -17.8495
106 10 -17.8495
107 10 -17.8495
108 10 -17.8495
109 10 -17.8495
110 10 -17.8495
111 10 -17.8495
112 10 -17.8495
113 10 -17.8495
114 10 -17.8495
115 10 -17.8495
116 10 -17.8495
117 10 -17.8495
118 10 -17.8495
119 10 -17.8495
0 11 -17.8495
1 11 -17.8495
2 11 -17.8495
3 11 -17.8495
4 11 -17.8495
5 11 -17.8495
6 11 -17.8495
7 11 -17.8495
8 11 -17.8495
9 11 -17.8495
10 11 -17.8495
11 11 -17.8495
12 11 -17.8495
13 11 -17.8495
14 11 -17.8495
15 11 -17.8495
16 11 -17.8495
17 11 -17.8495
18 11 -17.8495
19 11 -17.8495
20 11 -17.8495
21 11 -17.8495
22 11 -17.8495
23 11 -17.8495
24 11 -17.8495
25 11 -17.8495
26 11 -17.8495
27 11 -7.55519
28 11 -7.43697
29 11 -6.94381
30 11 -6.31355
31 11 -5.76461
32 11 -5.2686
33 11 -4.87842
34 11 -4.56607
35 11 -4.31717
36 11 -4.13333
37 11 -3.88939
38 11 -3.60765
39 11 -3.28123
40 11 -2.9385
41 11 -2.64537
42 11 -2.42524
43 11 -2.27946
44 11 -2.18514
45 11 -2.12141
46 11 -2.09689
47 11 -2.06799
48 11 -2.09479
49 11 -2.11954
50 11 -2.20186
51 11 -2.31696
52 11 -2.50704
53 11 -2.78439
54 11 -3.17632
55 11 -3.70611
56 11 -4.32807
57 11 -5.15435
58 11 -5.80637
59 11 -6.57856
60 11 -17.8495
61 11 -17.8495
62 11 -17.8495
63 11 -17.8495
64 11 -17.8495
65 11 -17.8495
66 11 -17.8495
67 11 -17.8495
68 11 -7.50535
69 11 -7.41647
70 11 -6.97115
71 11 -6.5302
72 11 -6.13288
73 11 -5.79806
74 11 -5.48518
75 11 -5.21238
76 11 -4.86294
77 11 -4.5266
78 11 -4.20618
79 11 -3.95918
80 11 -4.00191
81 11 -17.8495
82 11 -17.8495
83 11 -17.8495
84 11 -17.8495
85 11 -17.8495
86 11 -17.8495
87 11 -17.8495
88 11 -17.8495
89 11 -17.8495
90 11 -17.8495
91 11 -17.8495
92 11 -17.8495
93 11 -17.8495
94 11 -17.8495
95 11 -17.8495
96 11 -17.8495
97 11 -17.8495
98 11 -17.8495
99 11 -17.8495
100 11 -17.8495
101 11 -17.8495
102 11 -17.8495
103 11 -17.8495
104 11 -17.8495
105 11 -17.8495
106 11 -17.8495
107 11 -17.8495
108 11 -17.8495
109 11 -17.8495
110 11 -17.8495
111 11 -17.8495
112 11 -17.8495
113 11 -17.8495
114 11 -17.8495
115 11 -17.8495
116 11 -17.8495
117 11 -17.8495
118 11 -17.8495
119 11 -17.8495
0 12 -17.8495
1 12 -17.8495
2 12 -17.8495
3 12 -17.8495
4 12 -17.8495
5 12 -17.8495
6 12 -17.8495
7 12 -17.8495
8 12 -17.8495
9 12 -17.8495
10 12 -17.8495
11 12 -17.8495
12 12 -17.8495
13 12 -17.8495
14 12 -17.8495
15 12 -17.8495
16 12 -17.8495
17 12 -17.8495
18 12 -17.8495
19 12 -17.8495
20 12 -17.8495
21 12 -17.8495
22 12 -17.8495
23 12 -17.8495
24 12 -17.8495
25 12 -17.8495
26 12 -7.66988
27 12 -7.52721
28 12 -7.01029
29 12 -6.4528
30 12 -5.84436
31 12 -5.27973
32 12 -4.76195
33 12 -4.34573
34 12 -4.02735
35 12 -3.75713
36 12 -3.54906
37 12 -3.33725
38 12 -3.09321
39 12 -2.83072
40 12 -2.56787
41 12 -2.34436
42 12 -2.17256
43 12 -2.05639
44 12 -1.98403
45 12 -1.9428
46 12 -1.9015
47 12 -1.90385
48 12 -1.92241
49 12 -1.96097
50 12 -2.03747
51 12 -2.18029
52 12 -2.40926
53 12 -2.714
54 12 -3.15323
55 12 -3.68618
56 12 -4.31848
57 12 -5.04344
58 12 -5.78891
59 12 -6.71457
60 12 -7.61042
61 12 -17.8495
62 12 -17.8495
63 12 -17.8495
64 12 -17.8495
65 12 -17.8495
66 12 -17.8495
67 12 -7.91371
68 12 -7.61828
69 12 -7.28265
70 12 -6.82338
71 12 -6.39529
72 12 -6.00251
73 12 -5.64638
74 12 -5.33376
75 12 -5.05408
76 12 -4.75567
77 12 -4.46074
78 12 -4.14637
79 12 -3.86289
80 12 -3.64223
81 12 -3.53773
82 12 -3.90002
83 12 -17.8495
84 12 -17.8495
85 12 -17.8495
86 12 -17.8495
87 12 -17.8495
88 12 -17.8495
89 12 -17.8495
90 12 -17.8495
91 12 -17.8495
92 12 -17.8495
93 12 -17.8495
94 12 -17.8495
95 12 -17.8495
96 12 -17.8495
97 12 -17.8495
98 12 -17.8495
99 12 -17.8495
100 12 -17.8495
101 12 -17.8495
102 12 -17.8495
103 12 -17.8495
104 12 -17.8495
105 12 -17.8495
106 12 -17.8495
107 12 -17.8495
108 12 -17.8495
109 12 -17.8495
110 12 -17.8495
111 12 -17.8495
112 12 -17.8495
113 12 -17.8495
114 12 -17.8495
115 12 -17.8495
116 12 -17.8495
117 12 -17.8495
118 12 -17.8495
119 12 -17.8495
0 13 -17.8495
1 13 -17.8495
2 13 -17.8495
3 13 -17.8495
4 13 -17.8495
5 13 -17.8495
6 13 -17.8495
7 13 -17.8495
8 13 -17.8495
9 13 -17.8495
10 13 -17.8495
11 13 -17.8495
12 13 -17.8495
13 13 -17.8495
14 13 -17.8495
15 13 -17.8495
16 13 -17.8495
17 13 -17.8495
18 13 -17.8495
19 13 -17.8495
20 13 -17.8495
21 13 -17.8495
22 13 -17.8495
23 13 -17.8495
24 13 -17.8495
25 13 -7.60982
26 13 -7.74156
27 13 -7.26391
28 13 -6.64855
29 13 -6.02915
30 13 -5.3856
31 13 -4.80047
32 13 -4.29046
33 13 -3.85877
34 13 -3.51559
35 13 -3.25064
36 13 -3.03643
37 13 -2.83452
38 13 -2.62699
39 13 -2.41735
40 13 -2.22019
41 13 -2.05609
42 13 -1.9325
43 13 -1.84772
44 13 -1.79561
45 13 -1.75127
46 13 -1.72502
47 13 -1.72309
48 13 -1.73938
49 13 -1.79786
50 13 -1.90323
51 13 -2.07957
52 13 -2.32308
53 13 -2.6568
54 13 -3.09346
55 13 -3.64827
56 13 -4.2685
57 13 -4.95367
58 13 -5.67825
59 13 -6.53646
60 13 -7.459
61 13 -8.16749
62 13 -8.51045
63 13 -8.47913
64 13 -8.66336
65 13 -8.71859
66 13 -8.64511
67 13 -8.02157
68 13 -7.57825
69 13 -7.15983
70 13 -6.70829
71 13 -6.26736
72 13 -5.86916
73 13 -5.53239
74 13 -5.23344
75 13 -4.95016
76 13 -4.68231
77 13 -4.41402
78 13 -4.12658
79 13 -3.86247
80 13 -3.65892
81 13 -3.55986
82 13 -3.61282
83 13 -3.65247
84 13 -4.01866
85 13 -4.54674
86 13 -17.8495
87 13 -17.8495
88 13 -17.8495
89 13 -17.8495
90 13 -17.8495
91 13 -17.8495
92 13 -17.8495
93 13 -17.8495
94 13 -17.8495
95 13 -17.8495
96 13 -17.8495
97 13 -17.8495
98 13 -17.8495
99 13 -17.8495
100 13 -17.8495
101 13 -17.8495
102 13 -17.8495
103 13 -17.8495
104 13 -17.8495
105 13 -17.8495
106 13 -17.8495
107 13 -17.8495
108 13 -17.8495
109 13 -17.8495
110 13 -17.8495
111 13 -17.8495
112 13 -17.8495
113 13 -17.8495
114 13 -17.8495
115 13 -17.8495
116 13 -17.8495
117 13 -17.8495
118 13 -17.8495
119 13 -17.8495
0 14 -17.8495
1 14 -17.8495
2 14 -17.8495
3 14 -17.8495
4 14 -17.8495
5 14 -17.8495
6 14 -17.8495
7 14 -17.8495
8 14 -17.8495
9 14 -17.8495
10 14 -17.8495
11 14 -17.8495
12 14 -17.8495
13 14 -17.8495
14 14 -17.8495
15 14 -17.8495
16 14 -17.8495
17 14 -17.8495
18 14 -17.8495
19 14 -17.8495
20 14 -17.8495
21 14 -17.8495
22 14 -17.8495
23 14 -17.8495
24 14 -17.8495
25 14 -8.38891
26 14 -7.95178
27 14 -7.22237
28 14 -6.42456
29 14 -5.71525
30 14 -5.03023
31 14 -4.39579
32 14 -3.86952
33 14 -3.42824
34 14 -3.06985
35 14 -2.79933
36 14 -2.58249
37 14 -2.39338
38 14 -2.22357
39 14 -2.06022
40 14 -1.89957
41 14 -1.78747
42 14 -1.70169
43 14 -1.64439
44 14 -1.60341
45 14 -1.58067
46 14 -1.56056
47 14 -1.56523
48 14 -1.59406
49 14 -1.67093
50 14 -1.79732
51 14 -1.99223
52 14 -2.2563
53 14 -2.60606
54 14 -3.05494
55 14 -3.58817
56 14 -4.20503
57 14 -4.86966
58 14 -5.58909
59 14 -6.40679
60 14 -7.27548
61 14 -8.06419
62 14 -8.66356
63 14 -9.02968
64 14 -9.09289
65 14 -8.96271
66 14 -8.60054
67 14 -8.07918
68 14 -7.56211
69 14 -7.07967
70 14 -6.5707
71 14 -6.13342
72 14 -5.74357
73 14 -5.39592
74 14 -5.09881
75 14 -4.84352
76 14 -4.60007
77 14 -4.35086
78 14 -4.11645
79 14 -3.88411
80 14 -3.73026
81 14 -3.62141
82 14 -3.61891
83 14 -3.66978
84 14 -3.82749
85 14 -4.03156
86 14 -4.38541
87 14 -4.82773
88 14 -5.47206
89 14 -6.22129
90 14 -17.8495
91 14 -17.8495
92 14 -17.8495
93 14 -17.8495
94 14 -17.8495
95 14 -17.8495
96 14 -17.8495
97 14 -17.8495
98 14 -17.8495
99 14 -17.8495
100 14 -17.8495
101 14 -17.8495
102 14 -17.8495
103 14 -17.8495
104 14 -17.8495
105 14 -17.8495
106 14 -17.8495
107 14 -17.8495
108 14 -17.8495
109 14 -17.8495
110 14 -17.8495
111 14 -17.8495
112 14 -17.8495
113 14 -17.8495
114 14 -17.8495
115 14 -17.8495
116 14 -17.8495
117 14 -17.8495
118 14 -17.8495
119 14 -17.8495
0 15 -17.8495
1 15 -17.8495
2 15 -17.8495
3 15 -17.8495
4 15 -17.8495
5 15 -17.8495
6 15 -17.8495
7 15 -17.8495
8 15 -17.8495
9 15 -17.8495
10 15 -17.8495
11 15 -17.8495
12 15 -17.8495
13 15 -17.8495
14 15 -17.8495
15 15 -17.8495
16 15 -17.8495
17 15 -17.8495
18 15 -17.8495
19 15 -17.8495
20 15 -17.8495
21 15 -17.8495
22 15 -17.8495
23 15 -17.8495
24 15 -17.8495
25 15 -8.75888
26 15 -7.93931
27 15 -7.14642
28 15 -6.25519
29 15 -5.46512
30 15 -4.74078
31 15 -4.08403
32 15 -3.52821
33 15 -3.06481
34 15 -2.68682
35 15 -2.40747
36 15 -2.1877
37 15 -2.01099
38 15 -1.86205
39 15 -1.73571
40 15 -1.63451
41 15 -1.55208
42 15 -1.49843
43 15 -1.45359
44 15 -1.42965
45 15 -1.41174
46 15 -1.4118
47 15 -1.44848
48 15 -1.4951
49 15 -1.58747
50 15 -1.7324
51 15 -1.94738
52 15 -2.22473
53 15 -2.5859
54 15 -3.04293
55 15 -3.57194
56 15 -4.16855
57 15 -4.82942
58 15 -5.54941
59 15 -6.36992
60 15 -7.24248
61 15 -8.0547
62 15 -8.78537
63 15 -9.23645
64 15 -9.32665
65 15 -9.10782
66 15 -8.64151
67 15 -8.06005
68 15 -7.51605
69 15 -6.99096
70 15 -6.47489
71 15 -6.02324
72 15 -5.62658
73 15 -5.27885
74 15 -4.99329
75 15 -4.74031
76 15 -4.50637
77 15 -4.29399
78 15 -4.0955
79 15 -3.91853
80 15 -3.79268
81 15 -3.70911
82 15 -3.69648
83 15 -3.76815
84 15 -3.85819
85 15 -3.97241
86 15 -4.18589
87 15 -4.58587
88 15 -5.18194
89 15 -6.0358
90 15 -6.74213
91 15 -7.59129
92 15 -8.4116
93 15 -17.8495
94 15 -17.8495
95 15 -17.8495
96 15 -17.8495
97 15 -17.8495
98 15 -17.8495
99 15 -17.8495
100 15 -17.8495
101 15 -17.8495
102 15 -17.8495
103 15 -17.8495
104 15 -17.8495
105 15 -17.8495
106 15 -17.8495
107 15 -17.8495
108 15 -17.8495
109 15 -17.8495
110 15 -17.8495
111 15 -17.8495
112 15 -17.8495
113 15 -17.8495
114 15 -17.8495
115 15 -17.8495
116 15 -17.8495
117 15 -17.8495
118 15 -17.8495
119 15 -17.8495
0 16 -17.8495
1 16 -17.8495
2 16 -17.8495
3 16 -17.8495
4 16 -17.8495
5 16 -17.8495
6 16 -17.8495
7 16 -17.8495
8 16 -17.8495
9 16 -17.8495
10 16 -17.8495
11 16 -17.8495
12 16 -17.8495
13 16 -17.8495
14 16 -17.8495
15 16 -17.8495
16 16 -17.8495
17 16 -17.8495
18 16 -17.8495
19 16 -17.8495
20 16 -17.8495
21 16 -17.8495
22 16 -17.8495
23 16 -17.8495
24 16 -17.8495
25 16 -8.91815
26 16 -8.06717
27 16 -7.17
28 16 -6.20513
29 16 -5.32204
30 16 -4.55535
31 16 -3.8564
32 16 -3.25627
33 16 -2.7792
34 16 -2.38754
35 16 -2.07424
36 16 -1.84834
37 16 -1.67201
38 16 -1.55168
39 16 -1.46083
40 16 -1.39253
41 16 -1.33692
42 16 -1.31025
43 16 -1.29013
44 16 -1.29262
45 16 -1.30672
46 16 -1.32599
47 16 -1.37564
48 16 -1.44814
49 16 -1.56623
50 16 -1.72293
51 16 -1.94698
52 16 -2.24008
53 16 -2.61306
54 16 -3.06748
55 16 -3.59417
56 16 -4.18935
57 16 -4.844
58 16 -5.58037
59 16 -6.40338
60 16 -7.2891
61 16 -8.148
62 16 -8.88253
63 16 -9.34258
64 16 -9.43724
65 16 -9.16871
66 16 -8.68412
67 16 -8.10727
68 16 -7.51703
69 16 -6.95975
70 16 -6.41891
71 16 -5.9426
72 16 -5.53024
73 16 -5.18182
74 16 -4.88981
75 16 -4.63797
76 16 -4.42679
77 16 -4.24037
78 16 -4.06884
79 16 -3.92758
80 16 -3.82335
81 16 -3.7791
82 16 -3.77381
83 16 -3.80939
84 16 -3.86531
85 16 -3.97508
86 16 -4.13526
87 16 -4.47147
88 16 -4.93697
89 16 -5.63788
90 16 -6.38247
91 16 -7.16215
92 16 -8.05377
93 16 -9.00982
94 16 -9.91973
95 16 -10.887
96 16 -11.7527
97 16 -12.7629
98 16 -17.8495
99 16 -17.8495
100 16 -17.8495
101 16 -17.8495
102 16 -17.8495
103 16 -17.8495
104 16 -17.8495
105 16 -17.8495
106 16 -17.8495
107 16 -17.8495
108 16 -17.8495
109 16 -17.8495
110 16 -17.8495
111 16 -17.8495
112 16 -17.8495
113 16 -17.8495
114 16 -17.8495
115 16 -17.8495
116 16 -17.8495
117 16 -17.8495
118 16 -17.8495
119 16 -17.8495
0 17 -17.8495
1 17 -17.8495
2 17 -17.8495
3 17 -17.8495
4 17 -17.8495
5 17 -17.8495
6 17 -17.8495
7 17 -17.8495
8 17 -17.8495
9 17 -17.8495
10 17 -17.8495
11 17 -17.8495
12 17 -17.8495
13 17 -17.8495
14 17 -17.8495
15 17 -17.8495
16 17 -17.8495
17 17 -17.8495
18 17 -17.8495
19 17 -17.8495
20 17 -17.8495
21 17 -17.8495
22 17 -17.8495
23 17 -17.8495
24 17 -7.22032
25 17 -8.66238
26 17 -8.23854
27 17 -7.2538
28 17 -6.24488
29 17 -5.28909
30 17 -4.43446
31 17 -3.69077
32 17 -3.07041
33 17 -2.55486
34 17 -2.13909
35 17 -1.81652
36 17 -1.57698
37 17 -1.40834
38 17 -1.29477
39 17 -1.22347
40 17 -1.19435
41 17 -1.17359
42 17 -1.16822
43 17 -1.16979
44 17 -1.18493
45 17 -1.21867
46 17 -1.26772
47 17 -1.33702
48 17 -1.43499
49 17 -1.57599
50 17 -1.75191
51 17 -1.98763
52 17 -2.2961
53 17 -2.68206
54 17 -3.14241
55 17 -3.67477
56 17 -4.27584
57 17 -4.93497
58 17 -5.68318
59 17 -6.53584
60 17 -7.43752
61 17 -8.30448
62 17 -9.00492
63 17 -9.44042
64 17 -9.5067
65 17 -9.26579
66 17 -8.78702
67 17 -8.19028
68 17 -7.60003
69 17 -6.9874
70 17 -6.42154
71 17 -5.91596
72 17 -5.48689
73 17 -5.11242
74 17 -4.81228
75 17 -4.55658
76 17 -4.3583
77 17 -4.18977
78 17 -4.04507
79 17 -3.92827
80 17 -3.85108
81 17 -3.81726
82 17 -3.82258
83 17 -3.8577
84 17 -3.92281
85 17 -4.0045
86 17 -4.16748
87 17 -4.43272
88 17 -4.82888
89 17 -5.38073
90 17 -6.02984
91 17 -6.73286
92 17 -7.58869
93 17 -8.52309
94 17 -9.53549
95 17 -10.5442
96 17 -11.6074
97 17 -12.7233
98 17 -13.4453
99 17 -14.1144
100 17 -14.7726
101 17 -15.4805
102 17 -17.8495
103 17 -17.8495
104 17 -17.8495
105 17 -17.8495
106 17 -17.8495
107 17 -17.8495
108 17 -17.8495
109 17 -17.8495
110 17 -17.8495
111 17 -17.8495
112 17 -17.8495
113 17 -17.8495
114 17 -17.8495
115 17 -17.8495
116 17 -17.8495
117 17 -17.8495
118 17 -17.8495
119 17 -17.8495
0 18 -17.8495
1 18 -17.8495
2 18 -17.8495
3 18 -17.8495
4 18 -17.8495
5 18 -17.8495
6 18 -17.8495
7 18 -17.8495
8 18 -17.8495
9 18 -17.8495
10 18 -17.8495
11 18 -17.8495
12 18 -17.8495
13 18 -17.8495
14 18 -17.8495
15 18 -17.8495
16 18 -17.8495
17 18 -17.8495
18 18 -17.8495
19 18 -17.8495
20 18 -17.8495
21 18 -17.8495
22 18 -17.8495
23 18 -17.8495
24 18 -9.14413
25 18 -9.29692
26 18 -8.5496
27 18 -7.4547
28 18 -6.33897
29 18 -5.27262
30 18 -4.36778
31 18 -3.57531
32 18 -2.91331
33 18 -2.36994
34 18 -1.93911
35 18 -1.59006
36 18 -1.34169
37 18 -1.17325
38 18 -1.07528
39 18 -1.03079
40 18 -1.01693
41 18 -1.01753
42 18 -1.03035
43 18 -1.04611
44 18 -1.09433
45 18 -1.15481
46 18 -1.23806
47 18 -1.3363
48 18 -1.46171
49 18 -1.61926
50 18 -1.81411
51 18 -2.06115
52 18 -2.37946
53 18 -2.77634
54 18 -3.25322
55 18 -3.79342
56 18 -4.40819
57 18 -5.09388
58 18 -5.86388
59 18 -6.73219
60 18 -7.64596
61 18 -8.50379
62 18 -9.17019
63 18 -9.56118
64 18 -9.61967
65 18 -9.38067
66 18 -8.91516
67 18 -8.33906
68 18 -7.71089
69 18 -7.08856
70 18 -6.48943
71 18 -5.94922
72 18 -5.48287
73 18 -5.09116
74 18 -4.77878
75 18 -4.52095
76 18 -4.33441
77 18 -4.16432
78 18 -4.02856
79 18 -3.91823
80 18 -3.85658
81 18 -3.8468
82 18 -3.8551
83 18 -3.9024
84 18 -3.96342
85 18 -4.04692
86 18 -4.19018
87 18 -4.40741
88 18 -4.73976
89 18 -5.19263
90 18 -5.75308
91 18 -6.46303
92 18 -7.28651
93 18 -8.22721
94 18 -9.2469
95 18 -10.3036
96 18 -11.3744
97 18 -12.4381
98 18 -13.3341
99 18 -14.1573
100 18 -14.9936
101 18 -15.9869
102 18 -16.7095
103 18 -17.8495
104 18 -17.8495
105 18 -17.8495
106 18 -17.8495
107 18 -17.8495
108 18 -17.8495
109 18 -17.8495
110 18 -17.8495
111 18 -17.8495
112 18 -17.8495
113 18 -17.8495
114 18 -17.8495
115 18 -17.8495
116 18 -17.8495
117 18 -17.8495
118 18 -17.8495
119 18 -17.8495
0 19 -17.8495
1 19 -17.8495
2 19 -17.8495
3 19 -17.8495
4 19 -17.8495
5 19 -17.8495
6 19 -17.8495
7 19 -17.8495
8 19 -17.8495
9 19 -17.8495
10 19 -17.8495
11 19 -17.8495
12 19 -17.8495
13 19 -17.8495
14 19 -17.8495
15 19 -17.8495
16 19 -17.8495
17 19 -17.8495
18 19 -17.8495
19 19 -17.8495
20 19 -17.8495
21 19 -17.8495
22 19 -17.8495
23 19 -17.8495
24 19 -9.99714
25 19 -9.77647
26 19 -8.82044
27 19 -7.61857
28 19 -6.40545
29 19 -5.28516
30 19 -4.31011
31 19 -3.47686
32 19 -2.79314
33 19 -2.22604
34 19 -1.77546
35 19 -1.41843
36 19 -1.16179
37 19 -0.990098
38 19 -0.899529
39 19 -0.860472
40 19 -0.851899
41 19 -0.872018
42 19 -0.897319
43 19 -0.93465
44 19 -0.998852
45 19 -1.09077
46 19 -1.21408
47 19 -1.34325
48 19 -1.49037
49 19 -1.67703
50 19 -1.90023
51 19 -2.17074
52 19 -2.49249
53 19 -2.89505
54 19 -3.37965
55 19 -3.93846
56 19 -4.55986
57 19 -5.27061
58 19 -6.07811
59 19 -6.96022
60 19 -7.8592
61 19 -8.70142
62 19 -9.33169
63 19 -9.69329
64 19 -9.73463
65 19 -9.49837
66 19 -9.06833
67 19 -8.50313
68 19 -7.88219
69 19 -7.23978
70 19 -6.60648
71 19 -6.03134
72 19 -5.5403
73 19 -5.13333
74 19 -4.80464
75 19 -4.54311
76 19 -4.32954
77 19 -4.15663
78 19 -4.01647
79 19 -3.91399
80 19 -3.85462
81 19 -3.83969
82 19 -3.87316
83 19 -3.91628
84 19 -3.99311
85 19 -4.08191
86 19 -4.21304
87 19 -4.40986
88 19 -4.70346
89 19 -5.10459
90 19 -5.65345
91 19 -6.32561
92 19 -7.12991
93 19 -8.06952
94 19 -9.06473
95 19 -10.123
96 19 -11.1934
97 19 -12.2165
98 19 -13.1878
99 19 -14.0811
100 19 -14.9898
101 19 -15.9686
102 19 -17.0796
103 19 -17.8495
104 19 -17.8495
105 19 -17.8495
106 19 -17.8495
107 19 -17.8495
108 19 -17.8495
109 19 -17.8495
110 19 -17.8495
111 19 -17.8495
112 19 -17.8495
113 19 -17.8495
114 19 -17.8495
115 19 -17.8495
116 19 -17.8495
117 19 -17.8495
118 19 -17.8495
119 19 -17.8495
0 20 -17.8495
1 20 -17.8495
2 20 -17.8495
3 20 -17.8495
4 20 -17.8495
5 20 -17.8495
6 20 -17.8495
7 20 -17.8495
8 20 -17.8495
9 20 -17.8495
10 20 -17.8495
11 20 -17.8495
12 20 -17.8495
13 20 -17.8495
14 20 -17.8495
15 20 -17.8495
16 20 -17.8495
17 20 -17.8495
18 20 -17.8495
19 20 -17.8495
20 20 -17.8495
21 20 -17.8495
22 20 -17.8495
23 20 -17.8495
24 20 -10.0832
25 20 -9.82966
26 20 -8.84934
27 20 -7.6163
28 20 -6.37917
29 20 -5.24576
30 20 -4.26815
31 20 -3.42506
32 20 -2.72281
33 20 -2.14792
34 20 -1.67388
35 20 -1.29555
36 20 -1.02403
37 20 -0.841916
38 20 -0.743161
39 20 -0.702424
40 20 -0.695405
41 20 -0.712305
42 20 -0.74872
43 20 -0.814242
44 20 -0.899541
45 20 -1.01266
46 20 -1.16176
47 20 -1.31934
48 20 -1.50565
49 20 -1.7179
50 20 -1.96282
51 20 -2.25964
52 20 -2.61303
53 20 -3.02632
54 20 -3.51291
55 20 -4.08134
56 20 -4.72166
57 20 -5.44932
58 20 -6.27915
59 20 -7.17686
60 20 -8.07882
61 20 -8.88086
62 20 -9.48285
63 20 -9.81579
64 20 -9.84801
65 20 -9.64278
66 20 -9.25648
67 20 -8.72399
68 20 -8.10252
69 20 -7.43951
70 20 -6.78919
71 20 -6.1952
72 20 -5.67414
73 20 -5.2414
74 20 -4.89474
75 20 -4.61491
76 20 -4.39356
77 20 -4.20133
78 20 -4.05095
79 20 -3.93026
80 20 -3.87121
81 20 -3.85213
82 20 -3.89148
83 20 -3.95765
84 20 -4.03674
85 20 -4.14231
86 20 -4.27392
87 20 -4.46002
88 20 -4.72917
89 20 -5.11202
90 20 -5.60974
91 20 -6.26746
92 20 -7.05927
93 20 -7.97665
94 20 -8.96053
95 20 -9.99605
96 20 -11.0381
97 20 -12.0645
98 20 -13.0524
99 20 -14.0015
100 20 -14.9672
101 20 -15.9471
102 20 -17.011
103 20 -17.8495
104 20 -17.8495
105 20 -17.8495
106 20 -17.8495
107 20 -17.8495
108 20 -17.8495
109 20 -17.8495
110 20 -17.8495
111 20 -17.8495
112 20 -17.8495
113 20 -17.8495
114 20 -17.8495
115 20 -17.8495
116 20 -17.8495
117 20 -17.8495
118 20 -17.8495
119 20 -17.8495
0 21 -17.8495
1 21 -17.8495
2 21 -17.8495
3 21 -17.8495
4 21 -17.8495
5 21 -17.8495
6 21 -17.8495
7 21 -17.8495
8 21 -17.8495
9 21 -17.8495
10 21 -17.8495
11 21 -17.8495
12 21 -17.8495
13 21 -17.8495
14 21 -17.8495
15 21 -17.8495
16 21 -17.8495
17 21 -17.8495
18 21 -17.8495
19 21 -17.8495
20 21 -17.8495
21 21 -17.8495
22 21 -17.8495
23 21 -17.8495
24 21 -9.9207
25 21 -9.49187
26 21 -8.51983
27 21 -7.39144
28 21 -6.20446
29 21 -5.12523
30 21 -4.16556
31 21 -3.3487
32 21 -2.6566
33 21 -2.07168
34 21 -1.5889
35 21 -1.20146
36 21 -0.920149
37 21 -0.730031
38 21 -0.615015
39 21 -0.56412
40 21 -0.549568
41 21 -0.560934
42 21 -0.602543
43 21 -0.678227
44 21 -0.790845
45 21 -0.922816
46 21 -1.08942
47 21 -1.29519
48 21 -1.50584
49 21 -1.7496
50 21 -2.01718
51 21 -2.33773
52 21 -2.71535
53 21 -3.14227
54 21 -3.63254
55 21 -4.19804
56 21 -4.84681
57 21 -5.58797
58 21 -6.42958
59 21 -7.33451
60 21 -8.24314
61 21 -9.02721
62 21 -9.59081
63 21 -9.92122
64 21 -9.96112
65 21 -9.78068
66 21 -9.42503
67 21 -8.93495
68 21 -8.34122
69 21 -7.69137
70 21 -7.02975
71 21 -6.40809
72 21 -5.86971
73 21 -5.41668
74 21 -5.05061
75 21 -4.74982
76 21 -4.49725
77 21 -4.27956
78 21 -4.10074
79 21 -3.96231
80 21 -3.88984
81 21 -3.87581
82 21 -3.91581
83 21 -3.99825
84 21 -4.09861
85 21 -4.21468
86 21 -4.36361
87 21 -4.5513
88 21 -4.81975
89 21 -5.1807
90 21 -5.66753
91 21 -6.30101
92 21 -7.07711
93 21 -7.94528
94 21 -8.90895
95 21 -9.92418
96 21 -10.945
97 21 -11.9593
98 21 -12.947
99 21 -13.9354
100 21 -14.9337
101 21 -15.9619
102 21 -17.0891
103 21 -17.8495
104 21 -17.8495
105 21 -17.8495
106 21 -17.8495
107 21 -17.8495
108 21 -17.8495
109 21 -17.8495
110 21 -17.8495
111 21 -17.8495
112 21 -17.8495
113 21 -17.8495
114 21 -17.8495
115 21 -17.8495
116 21 -17.8495
117 21 -17.8495
118 21 -17.8495
119 21 -17.8495
0 22 -17.8495
1 22 -17.8495
2 22 -17.8495
3 22 -17.8495
4 22 -17.8495
5 22 -17.8495
6 22 -17.8495
7 22 -17.8495
8 22 -17.8495
9 22 -17.8495
10 22 -17.8495
11 22 -17.8495
12 22 -17.8495
13 22 -17.8495
14 22 -17.8495
15 22 -17.8495
16 22 -17.8495
17 22 -17.8495
18 22 -17.8495
19 22 -17.8495
20 22 -17.8495
21 22 -17.8495
22 22 -17.8495
23 22 -17.8495
24 22 -9.43182
25 22 -8.87154
26 22 -7.99224
27 22 -6.96778
28 22 -5.90663
29 22 -4.92094
30 22 -4.03328
31 22 -3.25843
32 22 -2.59769
33 22 -2.02964
34 22 -1.53542
35 22 -1.13428
36 22 -0.839647
37 22 -0.631456
38 22 -0.500311
39 22 -0.431966
40 22 -0.415727
41 22 -0.435027
42 22 -0.487266
43 22 -0.572417
44 22 -0.696846
45 22 -0.852037
46 22 -1.0358
47 22 -1.24941
48 22 -1.48908
49 22 -1.75376
50 22 -2.04133
51 22 -2.37684
52 22 -2.77138
53 22 -3.21627
54 22 -3.71765
55 22 -4.28676
56 22 -4.93154
57 22 -5.66759
58 22 -6.52149
59 22 -7.4396
60 22 -8.33808
61 22 -9.10276
62 22 -9.66582
63 22 -9.99518
64 22 -10.0653
65 22 -9.91413
66 22 -9.60266
67 22 -9.15525
68 22 -8.60388
69 22 -7.96632
70 22 -7.30659
71 22 -6.67823
72 22 -6.11241
73 22 -5.63323
74 22 -5.22622
75 22 -4.89359
76 22 -4.61067
77 22 -4.36719
78 22 -4.17143
79 22 -4.01638
80 22 -3.9322
81 22 -3.91825
82 22 -3.95363
83 22 -4.05909
84 22 -4.18484
85 22 -4.31981
86 22 -4.47759
87 22 -4.68224
88 22 -4.95017
89 22 -5.30362
90 22 -5.79151
91 22 -6.39758
92 22 -7.1352
93 22 -7.98201
94 22 -8.90927
95 22 -9.89362
96 22 -10.8763
97 22 -11.8741
98 22 -12.8727
99 22 -13.8828
100 22 -14.9099
101 22 -15.9716
102 22 -17.0644
103 22 -17.8495
104 22 -17.8495
105 22 -17.8495
106 22 -17.8495
107 22 -17.8495
108 22 -17.8495
109 22 -17.8495
110 22 -17.8495
111 22 -17.8495
112 22 -17.8495
113 22 -17.8495
114 22 -17.8495
115 22 -17.8495
116 22 -17.8495
117 22 -17.8495
118 22 -17.8495
119 22 -17.8495
0 23 -17.8495
1 23 -17.8495
2 23 -17.8495
3 23 -17.8495
4 23 -17.8495
5 23 -17.8495
6 23 -17.8495
7 23 -17.8495
8 23 -17.8495
9 23 -17.8495
10 23 -17.8495
11 23 -17.8495
12 23 -17.8495
13 23 -17.8495
14 23 -17.8495
15 23 -17.8495
16 23 -17.8495
17 23 -17.8495
18 23 -17.8495
19 23 -17.8495
20 23 -17.8495
21 23 -17.8495
22 23 -17.8495
23 23 -9.24151
24 23 -8.83018
25 23 -8.22695
26 23 -7.40719
27 23 -6.49774
28 23 -5.56373
29 23 -4.672
30 23 -3.86038
31 23 -3.15713
32 23 -2.51392
33 23 -1.97251
34 23 -1.49472
35 23 -1.10365
36 23 -0.790817
37 23 -0.569312
38 23 -0.409543
39 23 -0.33883
40 23 -0.318816
41 23 -0.348702
42 23 -0.402904
43 23 -0.506177
44 23 -0.64484
45 23 -0.797936
46 23 -0.999543
47 23 -1.21857
48 23 -1.46433
49 23 -1.7338
50 23 -2.03669
51 23 -2.38176
52 23 -2.78675
53 23 -3.25674
54 23 -3.77687
55 23 -4.34641
56 23 -4.98748
57 23 -5.7389
58 23 -6.59017
59 23 -7.49784
60 23 -8.37425
61 23 -9.12658
62 23 -9.68792
63 23 -10.0258
64 23 -10.137
65 23 -10.0571
66 23 -9.81925
67 23 -9.43618
68 23 -8.90658
69 23 -8.28641
70 23 -7.62228
71 23 -6.96522
72 23 -6.38195
73 23 -5.86405
74 23 -5.42929
75 23 -5.06281
76 23 -4.73864
77 23 -4.46651
78 23 -4.24477
79 23 -4.08425
80 23 -3.97765
81 23 -3.96202
82 23 -4.01059
83 23 -4.11961
84 23 -4.2548
85 23 -4.41642
86 23 -4.60212
87 23 -4.81612
88 23 -5.09505
89 23 -5.45295
90 23 -5.93237
91 23 -6.5181
92 23 -7.23372
93 23 -8.05623
94 23 -8.95857
95 23 -9.90388
96 23 -10.8755
97 23 -11.8597
98 23 -12.8459
99 23 -13.863
100 23 -14.9141
101 23 -16.0154
102 23 -17.1619
103 23 -17.8495
104 23 -17.8495
105 23 -17.8495
106 23 -17.8495
107 23 -17.8495
108 23 -17.8495
109 23 -17.8495
110 23 -17.8495
111 23 -17.8495
112 23 -17.8495
113 23 -17.8495
114 23 -17.8495
115 23 -17.8495
116 23 -17.8495
117 23 -17.8495
118 23 -17.8495
119 23 -17.8495
0 24 -17.8495
1 24 -17.8495
2 24 -17.8495
3 24 -17.8495
4 24 -17.8495
5 24 -17.8495
6 24 -17.8495
7 24 -17.8495
8 24 -17.8495
9 24 -17.8495
10 24 -17.8495
11 24 -17.8495
12 24 -17.8495
13 24 -17.8495
14 24 -17.8495
15 24 -17.8495
16 24 -17.8495
17 24 -17.8495
18 24 -17.8495
19 24 -17.8495
20 24 -17.8495
21 24 -17.8495
22 24 -17.8495
23 24 -9.39224
24 24 -8.56624
25 24 -7.80057
26 24 -6.94908
27 24 -6.10025
28 24 -5.24029
29 24 -4.40877
30 24 -3.65405
31 24 -2.99689
32 24 -2.41594
33 24 -1.9056
34 24 -1.44365
35 24 -1.07066
36 24 -0.759208
37 24 -0.524989
38 24 -0.364198
39 24 -0.279755
40 24 -0.261394
41 24 -0.288096
42 24 -0.361737
43 24 -0.477544
44 24 -0.621802
45 24 -0.79286
46 24 -0.987606
47 24 -1.19699
48 24 -1.44408
49 24 -1.70846
50 24 -2.01549
51 24 -2.38537
52 24 -2.80924
53 24 -3.29575
54 24 -3.82575
55 24 -4.41502
56 24 -5.06555
57 24 -5.8127
58 24 -6.6374
59 24 -7.50921
60 24 -8.35992
61 24 -9.08871
62 24 -9.67073
63 24 -10.0577
64 24 -10.2425
65 24 -10.2464
66 24 -10.0817
67 24 -9.77369
68 24 -9.28453
69 24 -8.66839
70 24 -7.97927
71 24 -7.30163
72 24 -6.6647
73 24 -6.12324
74 24 -5.6508
75 24 -5.23573
76 24 -4.87953
77 24 -4.57126
78 24 -4.32576
79 24 -4.15364
80 24 -4.05323
81 24 -4.03195
82 24 -4.08692
83 24 -4.19949
84 24 -4.35009
85 24 -4.53363
86 24 -4.72441
87 24 -4.94814
88 24 -5.2433
89 24 -5.62457
90 24 -6.08879
91 24 -6.6705
92 24 -7.36507
93 24 -8.16047
94 24 -9.03879
95 24 -9.96985
96 24 -10.9153
97 24 -11.8732
98 24 -12.8578
99 24 -13.8809
100 24 -14.9282
101 24 -16.0462
102 24 -17.1675
103 24 -17.8495
104 24 -17.8495
105 24 -17.8495
106 24 -17.8495
107 24 -17.8495
108 24 -17.8495
109 24 -17.8495
110 24 -17.8495
111 24 -17.8495
112 24 -17.8495
113 24 -17.8495
114 24 -17.8495
115 24 -17.8495
116 24 -17.8495
117 24 -17.8495
118 24 -17.8495
119 24 -17.8495
0 25 -17.8495
1 25 -17.8495
2 25 -17.8495
3 25 -17.8495
4 25 -17.8495
5 25 -17.8495
6 25 -17.8495
7 25 -17.8495
8 25 -17.8495
9 25 -17.8495
10 25 -17.8495
11 25 -17.8495
12 25 -17.8495
13 25 -17.8495
14 25 -17.8495
15 25 -17.8495
16 25 -17.8495
17 25 -17.8495
18 25 -17.8495
19 25 -17.8495
20 25 -17.8495
21 25 -17.8495
22 25 -17.8495
23 25 -9.38358
24 25 -8.3651
25 25 -7.48676
26 25 -6.63771
27 25 -5.80451
28 25 -4.97599
29 25 -4.19517
30 25 -3.4859
31 25 -2.85688
32 25 -2.30486
33 25 -1.81605
34 25 -1.37404
35 25 -1.0152
36 25 -0.706389
37 25 -0.480832
38 25 -0.340163
39 25 -0.256943
40 25 -0.244258
41 25 -0.285666
42 25 -0.372286
43 25 -0.501598
44 25 -0.646338
45 25 -0.823322
46 25 -1.00699
47 25 -1.21622
48 25 -1.45105
49 25 -1.7207
50 25 -2.0339
51 25 -2.40498
52 25 -2.84359
53 25 -3.34704
54 25 -3.8958
55 25 -4.49569
56 25 -5.14689
57 25 -5.87954
58 25 -6.68894
59 25 -7.51563
60 25 -8.32551
61 25 -9.04175
62 25 -9.63244
63 25 -10.0722
64 25 -10.3427
65 25 -10.4592
66 25 -10.3962
67 25 -10.1609
68 25 -9.70658
69 25 -9.09817
70 25 -8.37867
71 25 -7.66276
72 25 -6.98756
73 25 -6.385
74 25 -5.86748
75 25 -5.41011
76 25 -5.01955
77 25 -4.67715
78 25 -4.41931
79 25 -4.24139
80 25 -4.14929
81 25 -4.11728
82 25 -4.18547
83 25 -4.29182
84 25 -4.45022
85 25 -4.63656
86 25 -4.84628
87 25 -5.09041
88 25 -5.39802
89 25 -5.78278
90 25 -6.25533
91 25 -6.83276
92 25 -7.51093
93 25 -8.28174
94 25 -9.13612
95 25 -10.0369
96 25 -10.9661
97 25 -11.9061
98 25 -12.8983
99 25 -13.9273
100 25 -15.0086
101 25 -16.1422
102 25 -17.2775
103 25 -17.8495
104 25 -17.8495
105 25 -17.8495
106 25 -17.8495
107 25 -17.8495
108 25 -17.8495
109 25 -17.8495
110 25 -17.8495
111 25 -17.8495
112 25 -17.8495
113 25 -17.8495
114 25 -17.8495
115 25 -17.8495
116 25 -17.8495
117 25 -17.8495
118 25 -17.8495
119 25 -17.8495
0 26 -17.8495
1 26 -17.8495
2 26 -17.8495
3 26 -17.8495
4 26 -17.8495
5 26 -17.8495
6 26 -17.8495
7 26 -17.8495
8 26 -17.8495
9 26 -17.8495
10 26 -17.8495
11 26 -17.8495
12 26 -17.8495
13 26 -17.8495
14 26 -17.8495
15 26 -17.8495
16 26 -17.8495
17 26 -17.8495
18 26 -17.8495
19 26 -17.8495
20 26 -17.8495
21 26 -17.8495
22 26 -17.8495
23 26 -9.44892
24 26 -8.41112
25 26 -7.41815
26 26 -6.52025
27 26 -5.63684
28 26 -4.81262
29 26 -4.06021
30 26 -3.36198
31 26 -2.74418
32 26 -2.20451
33 26 -1.71154
34 26 -1.29139
35 26 -0.93958
36 26 -0.655744
37 26 -0.453156
38 26 -0.309027
39 26 -0.247864
40 26 -0.250619
41 26 -0.303639
42 26 -0.406927
43 26 -0.54735
44 26 -0.713959
45 26 -0.882435
46 26 -1.06359
47 26 -1.26794
48 26 -1.50173
49 26 -1.77862
50 26 -2.09202
51 26 -2.47581
52 26 -2.93124
53 26 -3.46334
54 26 -4.02336
55 26 -4.62029
56 26 -5.2763
57 26 -5.98193
58 26 -6.74979
59 26 -7.53051
60 26 -8.29761
61 26 -8.99356
62 26 -9.60228
63 26 -10.1123
64 26 -10.4786
65 26 -10.6942
66 26 -10.7311
67 26 -10.5533
68 26 -10.1549
69 26 -9.53313
70 26 -8.79771
71 26 -8.03575
72 26 -7.31773
73 26 -6.67798
74 26 -6.11662
75 26 -5.6155
76 26 -5.1871
77 26 -4.82504
78 26 -4.55691
79 26 -4.37447
80 26 -4.27447
81 26 -4.25735
82 26 -4.30607
83 26 -4.42034
84 26 -4.57989
85 26 -4.77163
86 26 -4.99194
87 26 -5.26075
88 26 -5.58175
89 26 -5.96694
90 26 -6.43513
91 26 -6.99196
92 26 -7.65383
93 26 -8.41216
94 26 -9.25567
95 26 -10.1325
96 26 -11.0339
97 26 -11.9814
98 26 -12.9683
99 26 -14.0112
100 26 -15.1115
101 26 -16.272
102 26 -17.522
103 26 -17.8495
104 26 -17.8495
105 26 -17.8495
106 26 -17.8495
107 26 -17.8495
108 26 -17.8495
109 26 -17.8495
110 26 -17.8495
111 26 -17.8495
112 26 -17.8495
113 26 -17.8495
114 26 -17.8495
115 26 -17.8495
116 26 -17.8495
117 26 -17.8495
118 26 -17.8495
119 26 -17.8495
0 27 -17.8495
1 27 -17.8495
2 27 -17.8495
3 27 -17.8495
4 27 -17.8495
5 27 -17.8495
6 27 -17.8495
7 27 -17.8495
8 27 -17.8495
9 27 -17.8495
10 27 -17.8495
11 27 -17.8495
12 27 -17.8495
13 27 -17.8495
14 27 -17.8495
15 27 -17.8495
16 27 -17.8495
17 27 -17.8495
18 27 -17.8495
19 27 -17.8495
20 27 -17.8495
21 27 -17.8495
22 27 -17.8495
23 27 -9.50119
24 27 -8.42162
25 27 -7.46141
26 27 -6.49507
27 27 -5.57674
28 27 -4.73458
29 27 -3.97114
30 27 -3.28292
31 27 -2.667
32 27 -2.12497
33 27 -1.63427
34 27 -1.21387
35 27 -0.874627
36 27 -0.601485
37 27 -0.415275
38 27 -0.302258
39 27 -0.2553
40 27 -0.265583
41 27 -0.341749
42 27 -0.451786
43 27 -0.606176
44 27 -0.789843
45 27 -0.968973
46 27 -1.15786
47 27 -1.35796
48 27 -1.5876
49 27 -1.86759
50 27 -2.19384
51 27 -2.59051
52 27 -3.06875
53 27 -3.61129
54 27 -4.1874
55 27 -4.79139
56 27 -5.43621
57 27 -6.11908
58 27 -6.83921
59 27 -7.584
60 27 -8.31908
61 27 -9.00897
62 27 -9.62148
63 27 -10.1681
64 27 -10.6203
65 27 -10.9374
66 27 -11.0655
67 27 -10.9454
68 27 -10.5617
69 27 -9.96019
70 27 -9.183
71 27 -8.38838
72 27 -7.64254
73 27 -6.96749
74 27 -6.36365
75 27 -5.83428
76 27 -5.37931
77 27 -5.01071
78 27 -4.73116
79 27 -4.54101
80 27 -4.44029
81 27 -4.42252
82 27 -4.47904
83 27 -4.59478
84 27 -4.75232
85 27 -4.96543
86 27 -5.20119
87 27 -5.4643
88 27 -5.80269
89 27 -6.17877
90 27 -6.63436
91 27 -7.17652
92 27 -7.80119
93 27 -8.53364
94 27 -9.34147
95 27 -10.1914
96 27 -11.0887
97 27 -12.0201
98 27 -13.0221
99 27 -14.0994
100 27 -15.2528
101 27 -16.4714
102 27 -17.7386
103 27 -17.8495
104 27 -17.8495
105 27 -17.8495
106 27 -17.8495
107 27 -17.8495
108 27 -17.8495
109 27 -17.8495
110 27 -17.8495
111 27 -17.8495
112 27 -17.8495
113 27 -17.8495
114 27 -17.8495
115 27 -17.8495
116 27 -17.8495
117 27 -17.8495
118 27 -17.8495
119 27 -17.8495
0 28 -17.8495
1 28 -17.8495
2 28 -17.8495
3 28 -17.8495
4 28 -17.8495
5 28 -17.8495
6 28 -17.8495
7 28 -17.8495
8 28 -17.8495
9 28 -17.8495
10 28 -17.8495
11 28 -17.8495
12 28 -17.8495
13 28 -17.8495
14 28 -17.8495
15 28 -17.8495
16 28 -17.8495
17 28 -17.8495
18 28 -17.8495
19 28 -17.8495
20 28 -17.8495
21 28 -17.8495
22 28 -9.28424
23 28 -9.10928
24 28 -8.43358
25 28 -7.5006
26 28 -6.53649
27 28 -5.59331
28 28 -4.73911
29 28 -3.94771
30 28 -3.23456
31 28 -2.61578
32 28 -2.06041
33 28 -1.57235
34 28 -1.14815
35 28 -0.819701
36 28 -0.579532
37 28 -0.404441
38 28 -0.31137
39 28 -0.276435
40 28 -0.305397
41 28 -0.381382
42 28 -0.508446
43 28 -0.67287
44 28 -0.861537
45 28 -1.05901
46 28 -1.25651
47 28 -1.47031
48 28 -1.70874
49 28 -1.98628
50 28 -2.33333
51 28 -2.75397
52 28 -3.24878
53 28 -3.80091
54 28 -4.38536
55 28 -4.98791
56 28 -5.62118
57 28 -6.26977
58 28 -6.96729
59 28 -7.65864
60 28 -8.36052
61 28 -9.04414
62 28 -9.68924
63 28 -10.2805
64 28 -10.8022
65 28 -11.1961
66 28 -11.3909
67 28 -11.3192
68 28 -10.9545
69 28 -10.3296
70 28 -9.53389
71 28 -8.71652
72 28 -7.93464
73 28 -7.2267
74 28 -6.59259
75 28 -6.04835
76 28 -5.5718
77 28 -5.19875
78 28 -4.92723
79 28 -4.73254
80 28 -4.63681
81 28 -4.61945
82 28 -4.68496
83 28 -4.81509
84 28 -4.98766
85 28 -5.19779
86 28 -5.44263
87 28 -5.71594
88 28 -6.03187
89 28 -6.39668
90 28 -6.83159
91 28 -7.3425
92 28 -7.94968
93 28 -8.63455
94 28 -9.40237
95 28 -10.2218
96 28 -11.1085
97 28 -12.0541
98 28 -13.0911
99 28 -14.2304
100 28 -15.4799
101 28 -16.7951
102 28 -17.8495
103 28 -17.8495
104 28 -17.8495
105 28 -17.8495
106 28 -17.8495
107 28 -17.8495
108 28 -17.8495
109 28 -17.8495
110 28 -17.8495
111 28 -17.8495
112 28 -17.8495
113 28 -17.8495
114 28 -17.8495
115 28 -17.8495
116 28 -17.8495
117 28 -17.8495
118 28 -17.8495
119 28 -17.8495
0 29 -17.8495
1 29 -17.8495
2 29 -17.8495
3 29 -17.8495
4 29 -17.8495
5 29 -17.8495
6 29 -17.8495
7 29 -17.8495
8 29 -17.8495
9 29 -17.8495
10 29 -17.8495
11 29 -17.8495
12 29 -17.8495
13 29 -17.8495
14 29 -17.8495
15 29 -17.8495
16 29 -17.8495
17 29 -17.8495
18 29 -17.8495
19 29 -17.8495
20 29 -17.8495
21 29 -17.8495
22 29 -9.39755
23 29 -8.95773
24 29 -8.32431
25 29 -7.46781
26 29 -6.54136
27 29 -5.60099
28 29 -4.72778
29 29 -3.92856
30 29 -3.21481
31 29 -2.58381
32 29 -2.02283
33 29 -1.52581
34 29 -1.12972
35 29 -0.809436
36 29 -0.57899
37 29 -0.42824
38 29 -0.342549
39 29 -0.318307
40 29 -0.352401
41 29 -0.428934
42 29 -0.561071
43 29 -0.73044
44 29 -0.927865
45 29 -1.14164
46 29 -1.34953
47 29 -1.57489
48 29 -1.82664
49 29 -2.121
50 29 -2.47836
51 29 -2.91147
52 29 -3.41467
53 29 -3.97141
54 29 -4.55942
55 29 -5.16942
56 29 -5.80537
57 29 -6.44826
58 29 -7.11691
59 29 -7.78157
60 29 -8.45955
61 29 -9.12693
62 29 -9.78362
63 29 -10.418
64 29 -10.972
65 29 -11.4293
66 29 -11.6873
67 29 -11.6459
68 29 -11.2823
69 29 -10.6319
70 29 -9.82639
71 29 -8.9664
72 29 -8.16691
73 29 -7.44747
74 29 -6.81111
75 29 -6.24204
76 29 -5.77051
77 29 -5.40098
78 29 -5.13154
79 29 -4.95627
80 29 -4.87404
81 29 -4.85764
82 29 -4.92394
83 29 -5.05952
84 29 -5.23269
85 29 -5.45009
86 29 -5.69351
87 29 -5.96656
88 29 -6.27209
89 29 -6.61667
90 29 -7.02493
91 29 -7.51643
92 29 -8.07574
93 29 -8.72101
94 29 -9.45313
95 29 -10.2401
96 29 -11.1237
97 29 -12.0975
98 29 -13.1624
99 29 -14.3631
100 29 -15.7074
101 29 -17.1375
102 29 -17.8495
103 29 -17.8495
104 29 -17.8495
105 29 -17.8495
106 29 -17.8495
107 29 -17.8495
108 29 -17.8495
109 29 -17.8495
110 29 -17.8495
111 29 -17.8495
112 29 -17.8495
113 29 -17.8495
114 29 -17.8495
115 29 -17.8495
116 29 -17.8495
117 29 -17.8495
118 29 -17.8495
119 29 -17.8495
0 30 -17.8495
1 30 -17.8495
2 30 -17.8495
3 30 -17.8495
4 30 -17.8495
5 30 -17.8495
6 30 -17.8495
7 30 -17.8495
8 30 -17.8495
9 30 -17.8495
10 30 -17.8495
11 30 -17.8495
12 30 -17.8495
13 30 -17.8495
14 30 -17.8495
15 30 -17.8495
16 30 -17.8495
17 30 -17.8495
18 30 -17.8495
19 30 -17.8495
20 30 -17.8495
21 30 -17.8495
22 30 -9.29386
23 30 -8.91113
24 30 -8.27001
25 30 -7.44883
26 30 -6.52764
27 30 -5.60778
28 30 -4.71787
29 30 -3.90549
30 30 -3.19296
31 30 -2.56806
32 30 -2.01793
33 30 -1.53542
34 30 -1.1397
35 30 -0.844841
36 30 -0.626145
37 30 -0.493379
38 30 -0.414468
39 30 -0.384966
40 30 -0.403121
41 30 -0.485658
42 30 -0.627668
43 30 -0.800889
44 30 -1.00869
45 30 -1.23213
46 30 -1.46225
47 30 -1.70042
48 30 -1.95739
49 30 -2.26117
50 30 -2.63337
51 30 -3.062
52 30 -3.55834
53 30 -4.11974
54 30 -4.7129
55 30 -5.33102
56 30 -5.97057
57 30 -6.61815
58 30 -7.26348
59 30 -7.91702
60 30 -8.57982
61 30 -9.25555
62 30 -9.90551
63 30 -10.5487
64 30 -11.1273
65 30 -11.6138
66 30 -11.8698
67 30 -11.8465
68 30 -11.5062
69 30 -10.852
70 30 -10.0203
71 30 -9.17498
72 30 -8.35418
73 30 -7.61943
74 30 -6.98051
75 30 -6.42638
76 30 -5.96567
77 30 -5.59996
78 30 -5.3435
79 30 -5.19447
80 30 -5.10667
81 30 -5.11091
82 30 -5.17011
83 30 -5.30658
84 30 -5.48703
85 30 -5.69586
86 30 -5.93257
87 30 -6.19456
88 30 -6.48564
89 30 -6.81094
90 30 -7.2034
91 30 -7.66207
92 30 -8.19817
93 30 -8.8057
94 30 -9.49432
95 30 -10.2777
96 30 -11.1601
97 30 -12.1496
98 30 -13.2769
99 30 -14.549
100 30 -15.9771
101 30 -17.5116
102 30 -17.8495
103 30 -17.8495
104 30 -17.8495
105 30 -17.8495
106 30 -17.8495
107 30 -17.8495
108 30 -17.8495
109 30 -17.8495
110 30 -17.8495
111 30 -17.8495
112 30 -17.8495
113 30 -17.8495
114 30 -17.8495
115 30 -17.8495
116 30 -17.8495
117 30 -17.8495
118 30 -17.8495
119 30 -17.8495
0 31 -17.8495
1 31 -17.8495
2 31 -17.8495
3 31 -17.8495
4 31 -17.8495
5 31 -17.8495
6 31 -17.8495
7 31 -17.8495
8 31 -17.8495
9 31 -17.8495
10 31 -17.8495
11 31 -17.8495
12 31 -17.8495
13 31 -17.8495
14 31 -17.8495
15 31 -17.8495
16 31 -17.8495
17 31 -17.8495
18 31 -17.8495
19 31 -17.8495
20 31 -17.8495
21 31 -17.8495
22 31 -8.97985
23 31 -8.89847
24 31 -8.24892
25 31 -7.44305
26 31 -6.53086
27 31 -5.60174
28 31 -4.7191
29 31 -3.90606
30 31 -3.19161
31 31 -2.5664
32 31 -2.02857
33 31 -1.56347
34 31 -1.20355
35 31 -0.920842
36 31 -0.721831
37 31 -0.583741
38 31 -0.489794
39 31 -0.451293
40 31 -0.469171
41 31 -0.55332
42 31 -0.702076
43 31 -0.886858
44 31 -1.10067
45 31 -1.33338
46 31 -1.58214
47 31 -1.83912
48 31 -2.10752
49 31 -2.4271
50 31 -2.77961
51 31 -3.2017
52 31 -3.70529
53 31 -4.2525
54 31 -4.8563
55 31 -5.48581
56 31 -6.13168
57 31 -6.7925
58 31 -7.44158
59 31 -8.086
60 31 -8.74712
61 31 -9.39754
62 31 -10.0495
63 31 -10.6786
64 31 -11.2541
65 31 -11.7166
66 31 -11.9789
67 31 -11.9493
68 31 -11.5973
69 31 -10.947
70 31 -10.1459
71 31 -9.29156
72 31 -8.49002
73 31 -7.76506
74 31 -7.12949
75 31 -6.5951
76 31 -6.1552
77 31 -5.81675
78 31 -5.56781
79 31 -5.42471
80 31 -5.35509
81 31 -5.3553
82 31 -5.41674
83 31 -5.54798
84 31 -5.71852
85 31 -5.92727
86 31 -6.15145
87 31 -6.39999
88 31 -6.67932
89 31 -6.99143
90 31 -7.37357
91 31 -7.81362
92 31 -8.32119
93 31 -8.90268
94 31 -9.57403
95 31 -10.3404
96 31 -11.2307
97 31 -12.2416
98 31 -13.4147
99 31 -14.7509
100 31 -16.2441
101 31 -17.8495
102 31 -17.8495
103 31 -17.8495
104 31 -17.8495
105 31 -17.8495
106 31 -17.8495
107 31 -17.8495
108 31 -17.8495
109 31 -17.8495
110 31 -17.8495
111 31 -17.8495
112 31 -17.8495
113 31 -17.8495
114 31 -17.8495
115 31 -17.8495
116 31 -17.8495
117 31 -17.8495
118 31 -17.8495
119 31 -17.8495
0 32 -17.8495
1 32 -17.8495
2 32 -17.8495
3 32 -17.8495
4 32 -17.8495
5 32 -17.8495
6 32 -17.8495
7 32 -17.8495
8 32 -17.8495
9 32 -17.8495
10 32 -17.8495
11 32 -17.8495
12 32 -17.8495
13 32 -17.8495
14 32 -17.8495
15 32 -17.8495
16 32 -17.8495
17 32 -17.8495
18 32 -17.8495
19 32 -17.8495
20 32 -17.8495
21 32 -17.8495
22 32 -9.23423
23 32 -8.95153
24 32 -8.36344
25 32 -7.49781
26 32 -6.57565
27 32 -5.63289
28 32 -4.74105
29 32 -3.92775
30 32 -3.2152
31 32 -2.5913
32 32 -2.0661
33 32 -1.63063
34 32 -1.30107
35 32 -1.03184
36 32 -0.838206
37 32 -0.69675
38 32 -0.605174
39 32 -0.546867
40 32 -0.556201
41 32 -0.631725
42 32 -0.778692
43 32 -0.97533
44 32 -1.20798
45 32 -1.45649
46 32 -1.70846
47 32 -1.9779
48 32 -2.26214
49 32 -2.59069
50 32 -2.94584
51 32 -3.36695
52 32 -3.8499
53 32 -4.39106
54 32 -5.00207
55 32 -5.63409
56 32 -6.29951
57 32 -6.97348
58 32 -7.62607
59 32 -8.28648
60 32 -8.93371
61 32 -9.57912
62 32 -10.2015
63 32 -10.7968
64 32 -11.3493
65 32 -11.792
66 32 -12.0182
67 32 -11.9746
68 32 -11.6162
69 32 -10.9827
70 32 -10.1928
71 32 -9.34388
72 32 -8.56187
73 32 -7.87127
74 32 -7.27763
75 32 -6.76764
76 32 -6.36269
77 32 -6.04035
78 32 -5.81717
79 32 -5.67944
80 32 -5.6085
81 32 -5.60613
82 32 -5.66885
83 32 -5.78955
84 32 -5.94606
85 32 -6.13068
86 32 -6.34618
87 32 -6.5889
88 32 -6.85267
89 32 -7.17073
90 32 -7.53893
91 32 -7.97448
92 32 -8.47466
93 32 -9.04453
94 32 -9.71795
95 32 -10.4921
96 32 -11.3922
97 32 -12.4343
98 32 -13.6561
99 32 -15.0341
100 32 -16.6135
101 32 -17.8495
102 32 -17.8495
103 32 -17.8495
104 32 -17.8495
105 32 -17.8495
106 32 -17.8495
107 32 -17.8495
108 32 -17.8495
109 32 -17.8495
110 32 -17.8495
111 32 -17.8495
112 32 -17.8495
113 32 -17.8495
114 32 -17.8495
115 32 -17.8495
116 32 -17.8495
117 32 -17.8495
118 32 -17.8495
119 32 -17.8495
0 33 -17.8495
1 33 -17.8495
2 33 -17.8495
3 33 -17.8495
4 33 -17.8495
5 33 -17.8495
6 33 -17.8495
7 33 -17.8495
8 33 -17.8495
9 33 -17.8495
10 33 -17.8495
11 33 -17.8495
12 33 -17.8495
13 33 -17.8495
14 33 -17.8495
15 33 -17.8495
16 33 -17.8495
17 33 -17.8495
18 33 -17.8495
19 33 -17.8495
20 33 -17.8495
21 33 -17.8495
22 33 -9.4244
23 33 -9.16518
24 33 -8.48785
25 33 -7.58385
26 33 -6.62861
27 33 -5.67793
28 33 -4.77953
29 33 -3.96071
30 33 -3.25592
31 33 -2.63255
32 33 -2.12796
33 33 -1.71801
34 33 -1.39359
35 33 -1.15363
36 33 -0.954935
37 33 -0.823873
38 33 -0.725433
39 33 -0.664038
40 33 -0.670038
41 33 -0.746812
42 33 -0.887647
43 33 -1.08864
44 33 -1.31544
45 33 -1.56678
46 33 -1.8338
47 33 -2.11432
48 33 -2.41723
49 33 -2.74129
50 33 -3.10887
51 33 -3.52163
52 33 -3.9967
53 33 -4.54029
54 33 -5.14865
55 33 -5.79682
56 33 -6.4775
57 33 -7.16153
58 33 -7.83358
59 33 -8.47978
60 33 -9.11258
61 33 -9.72951
62 33 -10.3205
63 33 -10.8814
64 33 -11.3819
65 33 -11.7659
66 33 -11.9469
67 33 -11.868
68 33 -11.5065
69 33 -10.9085
70 33 -10.1579
71 33 -9.36456
72 33 -8.62697
73 33 -7.98093
74 33 -7.43084
75 33 -6.97
