ply
format ascii 1.0
comment Created by Open3D
element vertex 3173
property double x
property double y
property double z
end_header
74 54 -5.21139
75 54 -5.60584
76 54 -5.99609
77 54 -6.38516
78 54 -6.74697
79 54 -7.13685
80 54 -7.47746
81 54 -7.80869
82 54 -8.09749
83 54 -8.37348
84 54 -8.61689
85 54 -8.89263
86 54 -9.1608
87 54 -9.4642
88 54 -9.82557
89 54 -10.2221
90 54 -10.6507
91 54 -11.1393
92 54 -11.6866
93 54 -12.4125
94 54 -13.2831
95 54 -14.4207
96 54 -15.8391
97 54 -17.7097
98 54 -21.8838
99 54 -21.8838
100 54 -21.8838
101 54 -21.8838
102 54 -21.8838
103 54 -21.8838
104 54 -21.8838
105 54 -21.8838
106 54 -21.8838
107 54 -21.8838
108 54 -21.8838
109 54 -21.8838
110 54 -21.8838
111 54 -21.8838
112 54 -21.8838
113 54 -21.8838
114 54 -21.8838
115 54 -21.8838
116 54 -21.8838
117 54 -21.8838
118 54 -21.8838
119 54 -21.8838
0 55 -21.8838
1 55 -21.8838
2 55 -21.8838
3 55 -21.8838
4 55 -21.8838
5 55 -21.8838
6 55 -21.8838
7 55 -21.8838
8 55 -21.8838
9 55 -21.8838
10 55 -21.8838
11 55 -21.8838
12 55 -21.8838
13 55 -21.8838
14 55 -21.8838
15 55 -21.8838
16 55 -21.8838
17 55 -21.8838
18 55 -21.8838
19 55 -21.8838
20 55 -21.8838
21 55 -21.8838
22 55 -21.8838
23 55 -16.3371
24 55 -13.7514
25 55 -12.1278
26 55 -10.7047
27 55 -9.4846
28 55 -8.45468
29 55 -7.62897
30 55 -6.91333
31 55 -6.34824
32 55 -5.85914
33 55 -5.4754
34 55 -5.13955
35 55 -4.88082
36 55 -4.69391
37 55 -4.56347
38 55 -4.46809
39 55 -4.34209
40 55 -4.19781
41 55 -4.02721
42 55 -3.84167
43 55 -3.64056
44 55 -3.38098
45 55 -3.12844
46 55 -2.87942
47 55 -2.63865
48 55 -2.37074
49 55 -2.09427
50 55 -1.78523
51 55 -1.54956
52 55 -1.33882
53 55 -1.184
54 55 -1.07007
55 55 -0.98724
56 55 -0.931489
57 55 -0.950798
58 55 -0.973114
59 55 -1.01191
60 55 -1.09201
61 55 -1.20785
62 55 -1.35633
63 55 -1.50189
64 55 -1.67005
65 55 -1.87617
66 55 -2.11706
67 55 -2.36609
68 55 -2.6438
69 55 -2.95574
70 55 -3.33545
71 55 -3.73601
72 55 -4.15032
73 55 -4.56378
74 55 -4.96442
75 55 -5.38563
76 55 -5.7936
77 55 -6.1736
78 55 -6.56883
79 55 -6.93041
80 55 -7.28229
81 55 -7.61649
82 55 -7.93121
83 55 -8.22793
84 55 -8.49547
85 55 -8.77515
86 55 -9.09118
87 55 -9.42025
88 55 -9.78471
89 55 -10.2004
90 55 -10.6886
91 55 -11.2172
92 55 -11.8077
93 55 -12.5724
94 55 -13.4568
95 55 -14.5882
96 55 -15.894
97 55 -18.1027
98 55 -21.8838
99 55 -21.8838
100 55 -21.8838
101 55 -21.8838
102 55 -21.8838
103 55 -21.8838
104 55 -21.8838
105 55 -21.8838
106 55 -21.8838
107 55 -21.8838
108 55 -21.8838
109 55 -21.8838
110 55 -21.8838
111 55 -21.8838
112 55 -21.8838
113 55 -21.8838
114 55 -21.8838
115 55 -21.8838
116 55 -21.8838
117 55 -21.8838
118 55 -21.8838
119 55 -21.8838
0 56 -21.8838
1 56 -21.8838
2 56 -21.8838
3 56 -21.8838
4 56 -21.8838
5 56 -21.8838
6 56 -21.8838
7 56 -21.8838
8 56 -21.8838
9 56 -21.8838
10 56 -21.8838
11 56 -21.8838
12 56 -21.8838
13 56 -21.8838
14 56 -21.8838
15 56 -21.8838
16 56 -21.8838
17 56 -21.8838
18 56 -21.8838
19 56 -21.8838
20 56 -21.8838
21 56 -21.8838
22 56 -21.8838
23 56 -16.3771
24 56 -13.7987
25 56 -12.2073
26 56 -10.788
27 56 -9.55157
28 56 -8.55778
29 56 -7.72474
30 56 -7.00948
31 56 -6.44007
32 56 -5.9493
33 56 -5.53244
34 56 -5.20483
35 56 -4.94271
36 56 -4.72852
37 56 -4.57429
38 56 -4.42021
39 56 -4.25683
40 56 -4.07827
41 56 -3.89866
42 56 -3.6884
43 56 -3.45462
44 56 -3.19367
45 56 -2.93641
46 56 -2.70814
47 56 -2.4515
48 56 -2.22732
49 56 -1.96504
50 56 -1.72964
51 56 -1.51165
52 56 -1.33073
53 56 -1.17854
54 56 -1.05586
55 56 -0.957957
56 56 -0.894185
57 56 -0.897668
58 56 -0.895882
59 56 -0.911635
60 56 -0.971026
61 56 -1.06985
62 56 -1.19398
63 56 -1.3199
64 56 -1.4852
65 56 -1.66712
66 56 -1.88956
67 56 -2.14193
68 56 -2.43333
69 56 -2.72651
70 56 -3.09104
71 56 -3.4842
72 56 -3.89311
73 56 -4.31961
74 56 -4.72714
75 56 -5.15484
76 56 -5.58074
77 56 -5.9579
78 56 -6.33847
79 56 -6.70661
80 56 -7.06573
81 56 -7.40676
82 56 -7.74027
83 56 -8.05292
84 56 -8.35764
85 56 -8.66519
86 56 -9.00085
87 56 -9.35773
88 56 -9.76035
89 56 -10.1929
90 56 -10.7069
91 56 -11.277
92 56 -11.9504
93 56 -12.7475
94 56 -13.6804
95 56 -14.8084
96 56 -16.133
97 56 -18.3254
98 56 -21.8838
99 56 -21.8838
100 56 -21.8838
101 56 -21.8838
102 56 -21.8838
103 56 -21.8838
104 56 -21.8838
105 56 -21.8838
106 56 -21.8838
107 56 -21.8838
108 56 -21.8838
109 56 -21.8838
110 56 -21.8838
111 56 -21.8838
112 56 -21.8838
113 56 -21.8838
114 56 -21.8838
115 56 -21.8838
116 56 -21.8838
117 56 -21.8838
118 56 -21.8838
119 56 -21.8838
0 57 -21.8838
1 57 -21.8838
2 57 -21.8838
3 57 -21.8838
4 57 -21.8838
5 57 -21.8838
6 57 -21.8838
7 57 -21.8838
8 57 -21.8838
9 57 -21.8838
10 57 -21.8838
11 57 -21.8838
12 57 -21.8838
13 57 -21.8838
14 57 -21.8838
15 57 -21.8838
16 57 -21.8838
17 57 -21.8838
18 57 -21.8838
19 57 -21.8838
20 57 -21.8838
21 57 -21.8838
22 57 -21.8838
23 57 -16.5539
24 57 -13.7095
25 57 -12.2224
26 57 -10.8427
27 57 -9.64857
28 57 -8.66752
29 57 -7.84452
30 57 -7.14037
31 57 -6.56291
32 57 -6.07818
33 57 -5.65965
34 57 -5.30819
35 57 -5.03123
36 57 -4.77828
37 57 -4.58389
38 57 -4.4005
39 57 -4.20837
40 57 -4.00116
41 57 -3.78285
42 57 -3.55948
43 57 -3.31497
44 57 -3.0403
45 57 -2.78421
46 57 -2.54617
47 57 -2.33141
48 57 -2.10922
49 57 -1.88625
50 57 -1.66142
51 57 -1.46967
52 57 -1.2786
53 57 -1.14057
54 57 -1.01453
55 57 -0.913611
56 57 -0.839832
57 57 -0.827369
58 57 -0.821651
59 57 -0.81171
60 57 -0.860734
61 57 -0.945835
62 57 -1.05336
63 57 -1.16765
64 57 -1.30186
65 57 -1.4758
66 57 -1.68979
67 57 -1.93736
68 57 -2.19436
69 57 -2.49584
70 57 -2.84494
71 57 -3.2505
72 57 -3.64094
73 57 -4.06213
74 57 -4.48113
75 57 -4.9118
76 57 -5.34352
77 57 -5.74177
78 57 -6.11366
79 57 -6.47122
80 57 -6.83362
81 57 -7.19278
82 57 -7.52626
83 57 -7.84786
84 57 -8.16523
85 57 -8.51339
86 57 -8.87672
87 57 -9.25332
88 57 -9.71527
89 57 -10.185
90 57 -10.7135
91 57 -11.3361
92 57 -12.0655
93 57 -12.903
94 57 -13.8795
95 57 -15.0332
96 57 -16.3654
97 57 -18.5345
98 57 -21.8838
99 57 -21.8838
100 57 -21.8838
101 57 -21.8838
102 57 -21.8838
103 57 -21.8838
104 57 -21.8838
105 57 -21.8838
106 57 -21.8838
107 57 -21.8838
108 57 -21.8838
109 57 -21.8838
110 57 -21.8838
111 57 -21.8838
112 57 -21.8838
113 57 -21.8838
114 57 -21.8838
115 57 -21.8838
116 57 -21.8838
117 57 -21.8838
118 57 -21.8838
119 57 -21.8838
0 58 -21.8838
1 58 -21.8838
2 58 -21.8838
3 58 -21.8838
4 58 -21.8838
5 58 -21.8838
6 58 -21.8838
7 58 -21.8838
8 58 -21.8838
9 58 -21.8838
10 58 -21.8838
11 58 -21.8838
12 58 -21.8838
13 58 -21.8838
14 58 -21.8838
15 58 -21.8838
16 58 -21.8838
17 58 -21.8838
18 58 -21.8838
19 58 -21.8838
20 58 -21.8838
21 58 -21.8838
22 58 -21.8838
23 58 -16.6549
24 58 -13.6506
25 58 -12.2333
26 58 -10.9208
27 58 -9.74643
28 58 -8.79732
29 58 -7.98292
30 58 -7.29082
31 58 -6.72098
32 58 -6.23039
33 58 -5.80164
34 58 -5.42857
35 58 -5.11136
36 58 -4.84725
37 58 -4.60921
38 58 -4.38936
39 58 -4.17083
40 58 -3.95476
41 58 -3.71469
42 58 -3.4527
43 58 -3.19328
44 58 -2.92336
45 58 -2.66685
46 58 -2.43278
47 58 -2.22046
48 58 -1.99901
49 58 -1.81121
50 58 -1.59598
51 58 -1.41171
52 58 -1.22538
53 58 -1.08941
54 58 -0.961006
55 58 -0.857682
56 58 -0.778305
57 58 -0.739557
58 58 -0.725063
59 58 -0.71848
60 58 -0.746562
61 58 -0.820374
62 58 -0.875683
63 58 -0.9873
64 58 -1.11516
65 58 -1.28544
66 58 -1.49657
67 58 -1.70893
68 58 -1.97186
69 58 -2.25277
70 58 -2.60686
71 58 -2.98287
72 58 -3.38348
73 58 -3.80245
74 58 -4.22936
75 58 -4.67565
76 58 -5.11066
77 58 -5.53611
78 58 -5.91635
79 58 -6.2695
80 58 -6.64072
81 58 -6.98112
82 58 -7.29906
83 58 -7.6495
84 58 -7.97817
85 58 -8.3398
86 58 -8.72554
87 58 -9.16959
88 58 -9.64947
89 58 -10.1507
90 58 -10.7308
91 58 -11.3845
92 58 -12.1451
93 58 -13.0451
94 58 -14.0785
95 58 -15.2433
96 58 -16.6193
97 58 -18.8348
98 58 -21.8838
99 58 -21.8838
100 58 -21.8838
101 58 -21.8838
102 58 -21.8838
103 58 -21.8838
104 58 -21.8838
105 58 -21.8838
106 58 -21.8838
107 58 -21.8838
108 58 -21.8838
109 58 -21.8838
110 58 -21.8838
111 58 -21.8838
112 58 -21.8838
113 58 -21.8838
114 58 -21.8838
115 58 -21.8838
116 58 -21.8838
117 58 -21.8838
118 58 -21.8838
119 58 -21.8838
0 59 -21.8838
1 59 -21.8838
2 59 -21.8838
3 59 -21.8838
4 59 -21.8838
5 59 -21.8838
6 59 -21.8838
7 59 -21.8838
8 59 -21.8838
9 59 -21.8838
10 59 -21.8838
11 59 -21.8838
12 59 -21.8838
13 59 -21.8838
14 59 -21.8838
15 59 -21.8838
16 59 -21.8838
17 59 -21.8838
18 59 -21.8838
19 59 -21.8838
20 59 -21.8838
21 59 -21.8838
22 59 -21.8838
23 59 -16.7117
24 59 -13.5919
25 59 -12.2497
26 59 -11.0039
27 59 -9.86785
28 59 -8.94498
29 59 -8.15917
30 59 -7.47406
31 59 -6.89689
32 59 -6.40002
33 59 -5.94053
34 59 -5.55352
35 59 -5.20741
36 59 -4.91395
37 59 -4.63342
38 59 -4.39714
39 59 -4.14634
40 59 -3.91324
41 59 -3.65405
42 59 -3.38149
43 59 -3.11088
44 59 -2.83539
45 59 -2.57937
46 59 -2.35364
47 59 -2.13975
48 59 -1.90671
49 59 -1.71903
50 59 -1.53872
51 59 -1.34232
52 59 -1.16579
53 59 -1.02949
54 59 -0.897678
55 59 -0.789708
56 59 -0.703494
57 59 -0.647979
58 59 -0.615734
59 59 -0.61195
60 59 -0.626647
61 59 -0.662122
62 59 -0.706589
63 59 -0.805946
64 59 -0.923243
65 59 -1.07911
66 59 -1.2808
67 59 -1.50838
68 59 -1.75228
69 59 -2.0188
70 59 -2.36362
71 59 -2.73326
72 59 -3.12615
73 59 -3.53936
74 59 -3.99695
75 59 -4.43352
76 59 -4.90036
77 59 -5.33022
78 59 -5.73079
79 59 -6.0847
80 59 -6.45263
81 59 -6.78953
82 59 -7.12981
83 59 -7.47871
84 59 -7.8242
85 59 -8.19551
86 59 -8.63792
87 59 -9.09184
88 59 -9.60366
89 59 -10.1365
90 59 -10.7569
91 59 -11.4342
92 59 -12.2468
93 59 -13.2086
94 59 -14.2848
95 59 -15.5067
96 59 -16.9409
97 59 -19.2634
98 59 -21.8838
99 59 -21.8838
100 59 -21.8838
101 59 -21.8838
102 59 -21.8838
103 59 -21.8838
104 59 -21.8838
105 59 -21.8838
106 59 -21.8838
107 59 -21.8838
108 59 -21.8838
109 59 -21.8838
110 59 -21.8838
111 59 -21.8838
112 59 -21.8838
113 59 -21.8838
114 59 -21.8838
115 59 -21.8838
116 59 -21.8838
117 59 -21.8838
118 59 -21.8838
119 59 -21.8838
0 60 -21.8838
1 60 -21.8838
2 60 -21.8838
3 60 -21.8838
4 60 -21.8838
5 60 -21.8838
6 60 -21.8838
7 60 -21.8838
8 60 -21.8838
9 60 -21.8838
10 60 -21.8838
11 60 -21.8838
12 60 -21.8838
13 60 -21.8838
14 60 -21.8838
15 60 -21.8838
16 60 -21.8838
17 60 -21.8838
18 60 -21.8838
19 60 -21.8838
20 60 -21.8838
21 60 -21.8838
22 60 -21.8838
23 60 -16.6028
24 60 -13.6647
25 60 -12.3285
26 60 -11.1017
27 60 -10.0329
28 60 -9.11587
29 60 -8.33628
30 60 -7.68432
31 60 -7.09638
32 60 -6.56243
33 60 -6.09398
34 60 -5.68587
35 60 -5.31351
36 60 -4.99377
37 60 -4.68842
38 60 -4.41964
39 60 -4.15694
40 60 -3.87818
41 60 -3.62492
42 60 -3.35165
43 60 -3.05657
44 60 -2.77033
45 60 -2.53142
46 60 -2.30492
47 60 -2.06239
48 60 -1.84274
49 60 -1.64175
50 60 -1.44969
51 60 -1.27104
52 60 -1.09447
53 60 -0.959969
54 60 -0.835627
55 60 -0.71306
56 60 -0.619992
57 60 -0.549187
58 60 -0.501718
59 60 -0.472961
60 60 -0.465526
61 60 -0.490871
62 60 -0.547862
63 60 -0.629147
64 60 -0.729329
65 60 -0.870983
66 60 -1.05915
67 60 -1.26628
68 60 -1.5111
69 60 -1.80096
70 60 -2.11554
71 60 -2.48517
72 60 -2.86688
73 60 -3.28775
74 60 -3.71524
75 60 -4.19292
76 60 -4.66838
77 60 -5.12748
78 60 -5.54878
79 60 -5.92735
80 60 -6.29831
81 60 -6.63544
82 60 -6.99502
83 60 -7.34135
84 60 -7.71296
85 60 -8.08853
86 60 -8.55456
87 60 -9.04537
88 60 -9.56643
89 60 -10.136
90 60 -10.7752
91 60 -11.4916
92 60 -12.3454
93 60 -13.3349
94 60 -14.4759
95 60 -15.782
96 60 -17.362
97 60 -19.8604
98 60 -21.8838
99 60 -21.8838
100 60 -21.8838
101 60 -21.8838
102 60 -21.8838
103 60 -21.8838
104 60 -21.8838
105 60 -21.8838
106 60 -21.8838
107 60 -21.8838
108 60 -21.8838
109 60 -21.8838
110 60 -21.8838
111 60 -21.8838
112 60 -21.8838
113 60 -21.8838
114 60 -21.8838
115 60 -21.8838
116 60 -21.8838
117 60 -21.8838
118 60 -21.8838
119 60 -21.8838
0 61 -21.8838
1 61 -21.8838
2 61 -21.8838
3 61 -21.8838
4 61 -21.8838
5 61 -21.8838
6 61 -21.8838
7 61 -21.8838
8 61 -21.8838
9 61 -21.8838
10 61 -21.8838
11 61 -21.8838
12 61 -21.8838
13 61 -21.8838
14 61 -21.8838
15 61 -21.8838
16 61 -21.8838
17 61 -21.8838
18 61 -21.8838
19 61 -21.8838
20 61 -21.8838
21 61 -21.8838
22 61 -21.8838
23 61 -16.4737
24 61 -14.2282
25 61 -12.4844
26 61 -11.249
27 61 -10.1714
28 61 -9.2859
29 61 -8.5217
30 61 -7.85586
31 61 -7.26719
32 61 -6.73097
33 61 -6.24979
34 61 -5.81875
35 61 -5.43331
36 61 -5.07821
37 61 -4.75928
38 61 -4.46916
39 61 -4.17479
40 61 -3.88044
41 61 -3.59471
42 61 -3.30677
43 61 -3.01996
44 61 -2.72671
45 61 -2.4738
46 61 -2.24385
47 61 -1.98852
48 61 -1.78831
49 61 -1.57006
50 61 -1.38837
51 61 -1.18999
52 61 -1.02281
53 61 -0.878196
54 61 -0.76161
55 61 -0.629869
56 61 -0.536232
57 61 -0.448688
58 61 -0.398846
59 61 -0.346388
60 61 -0.314945
61 61 -0.318797
62 61 -0.371817
63 61 -0.452093
64 61 -0.548969
65 61 -0.694671
66 61 -0.857819
67 61 -1.03801
68 61 -1.27884
69 61 -1.544
70 61 -1.87073
71 61 -2.22038
72 61 -2.58885
73 61 -3.01044
74 61 -3.46537
75 61 -3.93624
76 61 -4.43457
77 61 -4.93754
78 61 -5.40085
79 61 -5.81061
80 61 -6.18691
81 61 -6.54099
82 61 -6.87434
83 61 -7.23758
84 61 -7.59789
85 61 -8.04342
86 61 -8.49378
87 61 -9.00695
88 61 -9.56823
89 61 -10.1405
90 61 -10.7985
91 61 -11.545
92 61 -12.4359
93 61 -13.4545
94 61 -14.6559
95 61 -16.0837
96 61 -17.7893
97 61 -20.6389
98 61 -21.8838
99 61 -21.8838
100 61 -21.8838
101 61 -21.8838
102 61 -21.8838
103 61 -21.8838
104 61 -21.8838
105 61 -21.8838
106 61 -21.8838
107 61 -21.8838
108 61 -21.8838
109 61 -21.8838
110 61 -21.8838
111 61 -21.8838
112 61 -21.8838
113 61 -21.8838
114 61 -21.8838
115 61 -21.8838
116 61 -21.8838
117 61 -21.8838
118 61 -21.8838
119 61 -21.8838
0 62 -21.8838
1 62 -21.8838
2 62 -21.8838
3 62 -21.8838
4 62 -21.8838
5 62 -21.8838
6 62 -21.8838
7 62 -21.8838
8 62 -21.8838
9 62 -21.8838
10 62 -21.8838
11 62 -21.8838
12 62 -21.8838
13 62 -21.8838
14 62 -21.8838
15 62 -21.8838
16 62 -21.8838
17 62 -21.8838
18 62 -21.8838
19 62 -21.8838
20 62 -21.8838
21 62 -21.8838
22 62 -21.8838
23 62 -18.2939
24 62 -14.2469
25 62 -12.5228
26 62 -11.3664
27 62 -10.3169
28 62 -9.44169
29 62 -8.68787
30 62 -8.02776
31 62 -7.41632
32 62 -6.86556
33 62 -6.37622
34 62 -5.95267
35 62 -5.56752
36 62 -5.19634
37 62 -4.85178
38 62 -4.53079
39 62 -4.21313
40 62 -3.91285
41 62 -3.59324
42 62 -3.28315
43 62 -2.96828
44 62 -2.67996
45 62 -2.42101
46 62 -2.19174
47 62 -1.92539
48 62 -1.71872
49 62 -1.50333
50 62 -1.32791
51 62 -1.12585
52 62 -0.953907
53 62 -0.794691
54 62 -0.673242
55 62 -0.541315
56 62 -0.4444
57 62 -0.351075
58 62 -0.284974
59 62 -0.213645
60 62 -0.175267
61 62 -0.172106
62 62 -0.203775
63 62 -0.275548
64 62 -0.369377
65 62 -0.473801
66 62 -0.632731
67 62 -0.815363
68 62 -1.02388
69 62 -1.29093
70 62 -1.59772
71 62 -1.94363
72 62 -2.31511
73 62 -2.72749
74 62 -3.18567
75 62 -3.66818
76 62 -4.15853
77 62 -4.67878
78 62 -5.20461
79 62 -5.66988
80 62 -6.07661
81 62 -6.43507
82 62 -6.78731
83 62 -7.13971
84 62 -7.55674
85 62 -7.97522
86 62 -8.4682
87 62 -8.98662
88 62 -9.55303
89 62 -10.1584
90 62 -10.8186
91 62 -11.5772
92 62 -12.4855
93 62 -13.5381
94 62 -14.7768
95 62 -16.2731
96 62 -18.1261
97 62 -21.6282
98 62 -21.8838
99 62 -21.8838
100 62 -21.8838
101 62 -21.8838
102 62 -21.8838
103 62 -21.8838
104 62 -21.8838
105 62 -21.8838
106 62 -21.8838
107 62 -21.8838
108 62 -21.8838
109 62 -21.8838
110 62 -21.8838
111 62 -21.8838
112 62 -21.8838
113 62 -21.8838
114 62 -21.8838
115 62 -21.8838
116 62 -21.8838
117 62 -21.8838
118 62 -21.8838
119 62 -21.8838
0 63 -21.8838
1 63 -21.8838
2 63 -21.8838
3 63 -21.8838
4 63 -21.8838
5 63 -21.8838
6 63 -21.8838
7 63 -21.8838
8 63 -21.8838
9 63 -21.8838
10 63 -21.8838
11 63 -21.8838
12 63 -21.8838
13 63 -21.8838
14 63 -21.8838
15 63 -21.8838
16 63 -21.8838
17 63 -21.8838
18 63 -21.8838
19 63 -21.8838
20 63 -21.8838
21 63 -21.8838
22 63 -21.8838
23 63 -18.868
24 63 -14.3876
25 63 -12.518
26 63 -11.4579
27 63 -10.4499
28 63 -9.58108
29 63 -8.83761
30 63 -8.18232
31 63 -7.57096
32 63 -7.01853
33 63 -6.5138
34 63 -6.08357
35 63 -5.68717
36 63 -5.30667
37 63 -4.95769
38 63 -4.61493
39 63 -4.26664
40 63 -3.92178
41 63 -3.59992
42 63 -3.27135
43 63 -2.9555
44 63 -2.64991
45 63 -2.38057
46 63 -2.13675
47 63 -1.87397
48 63 -1.65024
49 63 -1.44226
50 63 -1.25123
51 63 -1.04837
52 63 -0.874825
53 63 -0.716975
54 63 -0.565558
55 63 -0.435019
56 63 -0.34113
57 63 -0.255095
58 63 -0.182301
59 63 -0.109102
60 63 -0.0690975
61 63 -0.0490228
62 63 -0.0591312
63 63 -0.108033
64 63 -0.178573
65 63 -0.273109
66 63 -0.418605
67 63 -0.582942
68 63 -0.774182
69 63 -1.01361
70 63 -1.30042
71 63 -1.63953
72 63 -2.01927
73 63 -2.43615
74 63 -2.89213
75 63 -3.3855
76 63 -3.88599
77 63 -4.41183
78 63 -4.95816
79 63 -5.48067
80 63 -5.95401
81 63 -6.36324
82 63 -6.72193
83 63 -7.11309
84 63 -7.53002
85 63 -7.95998
86 63 -8.44448
87 63 -8.97511
88 63 -9.53322
89 63 -10.1415
90 63 -10.8376
91 63 -11.6317
92 63 -12.5473
93 63 -13.5993
94 63 -14.8412
95 63 -16.341
96 63 -18.2807
97 63 -21.8838
98 63 -21.8838
99 63 -21.8838
100 63 -21.8838
101 63 -21.8838
102 63 -21.8838
103 63 -21.8838
104 63 -21.8838
105 63 -21.8838
106 63 -21.8838
107 63 -21.8838
108 63 -21.8838
109 63 -21.8838
110 63 -21.8838
111 63 -21.8838
112 63 -21.8838
113 63 -21.8838
114 63 -21.8838
115 63 -21.8838
116 63 -21.8838
117 63 -21.8838
118 63 -21.8838
119 63 -21.8838
0 64 -21.8838
1 64 -21.8838
2 64 -21.8838
3 64 -21.8838
4 64 -21.8838
5 64 -21.8838
6 64 -21.8838
7 64 -21.8838
8 64 -21.8838
9 64 -21.8838
10 64 -21.8838
11 64 -21.8838
12 64 -21.8838
13 64 -21.8838
14 64 -21.8838
15 64 -21.8838
16 64 -21.8838
17 64 -21.8838
18 64 -21.8838
19 64 -21.8838
20 64 -21.8838
21 64 -21.8838
22 64 -21.8838
23 64 -20.8218
24 64 -13.9907
25 64 -12.4383
26 64 -11.5474
27 64 -10.59
28 64 -9.74113
29 64 -8.9951
30 64 -8.34344
31 64 -7.74956
32 64 -7.19932
33 64 -6.69427
34 64 -6.23665
35 64 -5.826
36 64 -5.43215
37 64 -5.05823
38 64 -4.6997
39 64 -4.3349
40 64 -3.96558
41 64 -3.61165
42 64 -3.2518
43 64 -2.90786
44 64 -2.61522
45 64 -2.3379
46 64 -2.07002
47 64 -1.83125
48 64 -1.59667
49 64 -1.37185
50 64 -1.16812
51 64 -0.949728
52 64 -0.793748
53 64 -0.617536
54 64 -0.461197
55 64 -0.332312
56 64 -0.218036
57 64 -0.159957
58 64 -0.0791684
59 64 -0.0245722
60 64 0.0257827
61 64 0.0696833
62 64 0.0931618
63 64 0.0541677
64 64 0.00579783
65 64 -0.0976397
66 64 -0.201423
67 64 -0.3534
68 64 -0.540534
69 64 -0.772553
70 64 -1.03324
71 64 -1.38291
72 64 -1.73525
73 64 -2.16628
74 64 -2.62237
75 64 -3.09771
76 64 -3.61793
77 64 -4.12511
78 64 -4.69981
79 64 -5.26346
80 64 -5.77537
81 64 -6.24268
82 64 -6.67414
83 64 -7.06792
84 64 -7.48682
85 64 -7.9314
86 64 -8.42066
87 64 -8.94187
88 64 -9.49311
89 64 -10.1175
90 64 -10.8484
91 64 -11.6581
92 64 -12.5893
93 64 -13.6971
94 64 -14.9384
95 64 -16.5108
96 64 -18.5619
97 64 -21.8838
98 64 -21.8838
99 64 -21.8838
100 64 -21.8838
101 64 -21.8838
102 64 -21.8838
103 64 -21.8838
104 64 -21.8838
105 64 -21.8838
106 64 -21.8838
107 64 -21.8838
108 64 -21.8838
109 64 -21.8838
110 64 -21.8838
111 64 -21.8838
112 64 -21.8838
113 64 -21.8838
114 64 -21.8838
115 64 -21.8838
116 64 -21.8838
117 64 -21.8838
118 64 -21.8838
119 64 -21.8838
0 65 -21.8838
1 65 -21.8838
2 65 -21.8838
3 65 -21.8838
4 65 -21.8838
5 65 -21.8838
6 65 -21.8838
7 65 -21.8838
8 65 -21.8838
9 65 -21.8838
10 65 -21.8838
11 65 -21.8838
12 65 -21.8838
13 65 -21.8838
14 65 -21.8838
15 65 -21.8838
16 65 -21.8838
17 65 -21.8838
18 65 -21.8838
19 65 -21.8838
20 65 -21.8838
21 65 -21.8838
22 65 -21.8838
23 65 -21.8838
24 65 -14.9719
25 65 -12.7669
26 65 -11.7713
27 65 -10.7987
28 65 -9.95568
29 65 -9.18699
30 65 -8.5213
31 65 -7.93745
32 65 -7.37649
33 65 -6.86671
34 65 -6.412
35 65 -5.99664
36 65 -5.56222
37 65 -5.18823
38 65 -4.80962
39 65 -4.41916
40 65 -4.02118
41 65 -3.62573
42 65 -3.21006
43 65 -2.84807
44 65 -2.55158
45 65 -2.24939
46 65 -1.99651
47 65 -1.75324
48 65 -1.50827
49 65 -1.2884
50 65 -1.06897
51 65 -0.85958
52 65 -0.681441
53 65 -0.507385
54 65 -0.341722
55 65 -0.217482
56 65 -0.0924165
57 65 -0.0432053
58 65 0.0226286
59 65 0.0943631
60 65 0.136413
61 65 0.172271
62 65 0.192964
63 65 0.194589
64 65 0.166856
65 65 0.106706
66 65 0.0102219
67 65 -0.121149
68 65 -0.300858
69 65 -0.521001
70 65 -0.778706
71 65 -1.11277
72 65 -1.44917
73 65 -1.84853
74 65 -2.33188
75 65 -2.81204
76 65 -3.32565
77 65 -3.84841
78 65 -4.41831
79 65 -4.99556
80 65 -5.57702
81 65 -6.09563
82 65 -6.57082
83 65 -6.99312
84 65 -7.40759
85 65 -7.86186
86 65 -8.33885
87 65 -8.86453
88 65 -9.43115
89 65 -10.0802
90 65 -10.8189
91 65 -11.6533
92 65 -12.6301
93 65 -13.7369
94 65 -15.0009
95 65 -16.6489
96 65 -18.8555
97 65 -21.8838
98 65 -21.8838
99 65 -21.8838
100 65 -21.8838
101 65 -21.8838
102 65 -21.8838
103 65 -21.8838
104 65 -21.8838
105 65 -21.8838
106 65 -21.8838
107 65 -21.8838
108 65 -21.8838
109 65 -21.8838
110 65 -21.8838
111 65 -21.8838
112 65 -21.8838
113 65 -21.8838
114 65 -21.8838
115 65 -21.8838
116 65 -21.8838
117 65 -21.8838
118 65 -21.8838
119 65 -21.8838
0 66 -21.8838
1 66 -21.8838
2 66 -21.8838
3 66 -21.8838
4 66 -21.8838
5 66 -21.8838
6 66 -21.8838
7 66 -21.8838
8 66 -21.8838
9 66 -21.8838
10 66 -21.8838
11 66 -21.8838
12 66 -21.8838
13 66 -21.8838
14 66 -21.8838
15 66 -21.8838
16 66 -21.8838
17 66 -21.8838
18 66 -21.8838
19 66 -21.8838
20 66 -21.8838
21 66 -21.8838
22 66 -21.8838
23 66 -21.8838
24 66 -15.9088
25 66 -13.1394
26 66 -12.0383
27 66 -11.063
28 66 -10.1817
29 66 -9.39663
30 66 -8.73322
31 66 -8.12046
32 66 -7.55258
33 66 -7.02795
34 66 -6.57101
35 66 -6.14617
36 66 -5.71808
37 66 -5.33425
38 66 -4.92014
39 66 -4.47274
40 66 -4.04162
41 66 -3.59546
42 66 -3.14464
43 66 -2.76266
44 66 -2.45176
45 66 -2.17085
46 66 -1.90538
47 66 -1.65749
48 66 -1.41675
49 66 -1.19679
50 66 -0.967015
51 66 -0.757813
52 66 -0.539047
53 66 -0.376198
54 66 -0.218255
55 66 -0.0715356
56 66 0.0270993
57 66 0.104315
58 66 0.163919
59 66 0.219041
60 66 0.261995
61 66 0.286852
62 66 0.324159
63 66 0.327329
64 66 0.30933
65 66 0.259712
66 66 0.183496
67 66 0.0717379
68 66 -0.0765841
69 66 -0.29271
70 66 -0.541117
71 66 -0.815779
72 66 -1.16301
73 66 -1.56886
74 66 -2.02795
75 66 -2.53328
76 66 -3.02907
77 66 -3.55457
78 66 -4.10151
79 66 -4.70247
80 66 -5.27418
81 66 -5.88068
82 66 -6.4035
83 66 -6.88662
84 66 -7.30576
85 66 -7.74228
86 66 -8.23433
87 66 -8.76671
88 66 -9.34079
89 66 -10.0149
90 66 -10.7706
91 66 -11.639
92 66 -12.6273
93 66 -13.7746
94 66 -15.1053
95 66 -16.8248
96 66 -19.1405
97 66 -21.8838
98 66 -21.8838
99 66 -21.8838
100 66 -21.8838
101 66 -21.8838
102 66 -21.8838
103 66 -21.8838
104 66 -21.8838
105 66 -21.8838
106 66 -21.8838
107 66 -21.8838
108 66 -21.8838
109 66 -21.8838
110 66 -21.8838
111 66 -21.8838
112 66 -21.8838
113 66 -21.8838
114 66 -21.8838
115 66 -21.8838
116 66 -21.8838
117 66 -21.8838
118 66 -21.8838
119 66 -21.8838
0 67 -21.8838
1 67 -21.8838
2 67 -21.8838
3 67 -21.8838
4 67 -21.8838
5 67 -21.8838
6 67 -21.8838
7 67 -21.8838
8 67 -21.8838
9 67 -21.8838
10 67 -21.8838
11 67 -21.8838
12 67 -21.8838
13 67 -21.8838
14 67 -21.8838
15 67 -21.8838
16 67 -21.8838
17 67 -21.8838
18 67 -21.8838
19 67 -21.8838
20 67 -21.8838
21 67 -21.8838
22 67 -21.8838
23 67 -21.8838
24 67 -16.8555
25 67 -13.5398
26 67 -12.329
27 67 -11.3188
28 67 -10.4268
29 67 -9.63407
30 67 -8.94306
31 67 -8.32551
32 67 -7.76533
33 67 -7.23769
34 67 -6.75286
35 67 -6.30726
36 67 -5.89459
37 67 -5.46509
38 67 -5.01371
39 67 -4.52666
40 67 -4.02902
41 67 -3.52196
42 67 -3.07701
43 67 -2.67028
44 67 -2.34768
45 67 -2.08565
46 67 -1.79934
47 67 -1.54397
48 67 -1.29731
49 67 -1.06842
50 67 -0.838793
51 67 -0.625656
52 67 -0.413865
53 67 -0.234561
54 67 -0.0792327
55 67 0.0586045
56 67 0.18223
57 67 0.247517
58 67 0.298602
59 67 0.350425
60 67 0.414061
61 67 0.433864
62 67 0.468085
63 67 0.478526
64 67 0.458338
65 67 0.423352
66 67 0.376001
67 67 0.280648
68 67 0.126144
69 67 -0.0554622
70 67 -0.28037
71 67 -0.580228
72 67 -0.893295
73 67 -1.2912
74 67 -1.74796
75 67 -2.25129
76 67 -2.7501
77 67 -3.23849
78 67 -3.80959
79 67 -4.38044
80 67 -4.96606
81 67 -5.59349
82 67 -6.18652
83 67 -6.70391
84 67 -7.17757
85 67 -7.62107
86 67 -8.11361
87 67 -8.64299
88 67 -9.23911
89 67 -9.92163
90 67 -10.7232
91 67 -11.6198
92 67 -12.6348
93 67 -13.846
94 67 -15.2401
95 67 -16.9825
96 67 -20.3771
97 67 -21.8838
98 67 -21.8838
99 67 -21.8838
100 67 -21.8838
101 67 -21.8838
102 67 -21.8838
103 67 -21.8838
104 67 -21.8838
105 67 -21.8838
106 67 -21.8838
107 67 -21.8838
108 67 -21.8838
109 67 -21.8838
110 67 -21.8838
111 67 -21.8838
112 67 -21.8838
113 67 -21.8838
114 67 -21.8838
115 67 -21.8838
116 67 -21.8838
117 67 -21.8838
118 67 -21.8838
119 67 -21.8838
0 68 -21.8838
1 68 -21.8838
2 68 -21.8838
3 68 -21.8838
4 68 -21.8838
5 68 -21.8838
6 68 -21.8838
7 68 -21.8838
8 68 -21.8838
9 68 -21.8838
10 68 -21.8838
11 68 -21.8838
12 68 -21.8838
13 68 -21.8838
14 68 -21.8838
15 68 -21.8838
16 68 -21.8838
17 68 -21.8838
18 68 -21.8838
19 68 -21.8838
20 68 -21.8838
21 68 -21.8838
22 68 -21.8838
23 68 -21.8838
24 68 -17.9777
25 68 -13.9448
26 68 -12.5907
27 68 -11.6224
28 68 -10.7121
29 68 -9.90353
30 68 -9.18532
31 68 -8.56975
32 68 -7.97736
33 68 -7.4355
34 68 -6.95052
35 68 -6.4957
36 68 -6.04663
37 68 -5.57885
38 68 -5.05969
39 68 -4.51675
40 68 -3.98141
41 68 -3.45074
42 68 -2.99922
43 68 -2.60199
44 68 -2.25104
45 68 -1.96284
46 68 -1.69684
47 68 -1.42875
48 68 -1.17805
49 68 -0.931298
50 68 -0.692396
51 68 -0.484087
52 68 -0.267951
53 68 -0.0810911
54 68 0.066884
55 68 0.205054
56 68 0.316308
57 68 0.401627
58 68 0.459248
59 68 0.521703
60 68 0.553225
61 68 0.591369
62 68 0.623684
63 68 0.639547
64 68 0.622539
65 68 0.601945
66 68 0.560991
67 68 0.47198
68 68 0.336932
69 68 0.166552
70 68 -0.0528834
71 68 -0.333998
72 68 -0.651568
73 68 -1.03058
74 68 -1.48187
75 68 -1.96789
76 68 -2.45575
77 68 -2.95151
78 68 -3.50224
79 68 -4.05973
80 68 -4.69228
81 68 -5.31643
82 68 -5.91522
83 68 -6.46795
84 68 -7.00472
85 68 -7.49692
86 68 -7.98822
87 68 -8.51101
88 68 -9.1259
89 68 -9.84192
90 68 -10.6666
91 68 -11.6006
92 68 -12.6874
93 68 -13.9406
94 68 -15.4135
95 68 -17.3244
96 68 -21.2952
97 68 -21.8838
98 68 -21.8838
99 68 -21.8838
100 68 -21.8838
101 68 -21.8838
102 68 -21.8838
103 68 -21.8838
104 68 -21.8838
105 68 -21.8838
106 68 -21.8838
107 68 -21.8838
108 68 -21.8838
109 68 -21.8838
110 68 -21.8838
111 68 -21.8838
112 68 -21.8838
113 68 -21.8838
114 68 -21.8838
115 68 -21.8838
116 68 -21.8838
117 68 -21.8838
118 68 -21.8838
119 68 -21.8838
0 69 -21.8838
1 69 -21.8838
2 69 -21.8838
3 69 -21.8838
4 69 -21.8838
5 69 -21.8838
6 69 -21.8838
7 69 -21.8838
8 69 -21.8838
9 69 -21.8838
10 69 -21.8838
11 69 -21.8838
12 69 -21.8838
13 69 -21.8838
14 69 -21.8838
15 69 -21.8838
16 69 -21.8838
17 69 -21.8838
18 69 -21.8838
19 69 -21.8838
20 69 -21.8838
21 69 -21.8838
22 69 -21.8838
23 69 -21.8838
24 69 -19.1668
25 69 -14.4829
26 69 -12.905
27 69 -11.9358
28 69 -11.0087
29 69 -10.157
30 69 -9.42178
31 69 -8.80476
32 69 -8.19516
33 69 -7.65513
34 69 -7.1658
35 69 -6.68103
36 69 -6.15531
37 69 -5.60973
38 69 -5.06681
39 69 -4.49318
40 69 -3.93411
41 69 -3.40751
42 69 -2.93795
43 69 -2.53303
44 69 -2.15955
45 69 -1.85393
46 69 -1.57751
47 69 -1.30858
48 69 -1.05791
49 69 -0.796009
50 69 -0.546564
51 69 -0.323068
52 69 -0.11066
53 69 0.0709485
54 69 0.236968
55 69 0.352401
56 69 0.462001
57 69 0.536087
58 69 0.593231
59 69 0.648338
60 69 0.692617
61 69 0.746302
62 69 0.777368
63 69 0.79126
64 69 0.797108
65 69 0.782042
66 69 0.746303
67 69 0.679628
68 69 0.563974
69 69 0.383734
70 69 0.178694
71 69 -0.0733789
72 69 -0.389248
73 69 -0.764425
74 69 -1.21198
75 69 -1.68394
76 69 -2.14804
77 69 -2.64146
78 69 -3.18183
79 69 -3.77217
80 69 -4.42937
81 69 -5.09593
82 69 -5.6788
83 69 -6.25369
84 69 -6.78957
85 69 -7.29131
86 69 -7.79853
87 69 -8.35641
88 69 -8.98863
89 69 -9.73726
90 69 -10.6113
91 69 -11.5865
92 69 -12.7017
93 69 -14.0095
94 69 -15.59
95 69 -17.617
96 69 -21.8838
97 69 -21.8838
98 69 -21.8838
99 69 -21.8838
100 69 -21.8838
101 69 -21.8838
102 69 -21.8838
103 69 -21.8838
104 69 -21.8838
105 69 -21.8838
106 69 -21.8838
107 69 -21.8838
108 69 -21.8838
109 69 -21.8838
110 69 -21.8838
111 69 -21.8838
112 69 -21.8838
113 69 -21.8838
114 69 -21.8838
115 69 -21.8838
116 69 -21.8838
117 69 -21.8838
118 69 -21.8838
119 69 -21.8838
0 70 -21.8838
1 70 -21.8838
2 70 -21.8838
3 70 -21.8838
4 70 -21.8838
5 70 -21.8838
6 70 -21.8838
7 70 -21.8838
8 70 -21.8838
9 70 -21.8838
10 70 -21.8838
11 70 -21.8838
12 70 -21.8838
13 70 -21.8838
14 70 -21.8838
15 70 -21.8838
16 70 -21.8838
17 70 -21.8838
18 70 -21.8838
19 70 -21.8838
20 70 -21.8838
21 70 -21.8838
22 70 -21.8838
23 70 -21.8838
24 70 -21.8838
25 70 -15.2374
26 70 -13.329
27 70 -12.2839
28 70 -11.3191
29 70 -10.4737
30 70 -9.67608
31 70 -9.05023
32 70 -8.43144
33 70 -7.86737
34 70 -7.33618
35 70 -6.78622
36 70 -6.19958
37 70 -5.6189
38 70 -5.0501
39 70 -4.4601
40 70 -3.88831
41 70 -3.38126
42 70 -2.91089
43 70 -2.48564
44 70 -2.10036
45 70 -1.75119
46 70 -1.46694
47 70 -1.17786
48 70 -0.913818
49 70 -0.644068
50 70 -0.388686
51 70 -0.160786
52 70 0.0464584
53 70 0.233123
54 70 0.389917
55 70 0.511149
56 70 0.598305
57 70 0.662633
58 70 0.690598
59 70 0.767778
60 70 0.813433
61 70 0.860361
62 70 0.905674
63 70 0.911218
64 70 0.919727
65 70 0.922201
66 70 0.917607
67 70 0.871666
68 70 0.782739
69 70 0.631267
70 70 0.421679
71 70 0.15823
72 70 -0.145027
73 70 -0.503372
74 70 -0.943421
75 70 -1.41395
76 70 -1.89757
77 70 -2.3619
78 70 -2.90366
79 70 -3.51312
80 70 -4.18496
81 70 -4.89406
82 70 -5.51025
83 70 -6.07168
84 70 -6.60224
85 70 -7.13993
86 70 -7.65539
87 70 -8.21733
88 70 -8.87145
89 70 -9.65317
90 70 -10.5419
91 70 -11.5733
92 70 -12.7473
93 70 -14.1253
94 70 -15.8073
95 70 -18.0931
96 70 -21.8838
97 70 -21.8838
98 70 -21.8838
99 70 -21.8838
100 70 -21.8838
101 70 -21.8838
102 70 -21.8838
103 70 -21.8838
104 70 -21.8838
105 70 -21.8838
106 70 -21.8838
107 70 -21.8838
108 70 -21.8838
109 70 -21.8838
110 70 -21.8838
111 70 -21.8838
112 70 -21.8838
113 70 -21.8838
114 70 -21.8838
115 70 -21.8838
116 70 -21.8838
117 70 -21.8838
118 70 -21.8838
119 70 -21.8838
0 71 -21.8838
1 71 -21.8838
2 71 -21.8838
3 71 -21.8838
4 71 -21.8838
5 71 -21.8838
6 71 -21.8838
7 71 -21.8838
8 71 -21.8838
9 71 -21.8838
10 71 -21.8838
11 71 -21.8838
12 71 -21.8838
13 71 -21.8838
14 71 -21.8838
15 71 -21.8838
16 71 -21.8838
17 71 -21.8838
18 71 -21.8838
19 71 -21.8838
20 71 -21.8838
21 71 -21.8838
22 71 -21.8838
23 71 -21.8838
24 71 -21.8838
25 71 -16.1308
26 71 -13.789
27 71 -12.651
28 71 -11.6775
29 71 -10.7877
30 71 -9.97257
31 71 -9.29962
32 71 -8.67371
33 71 -8.08405
34 71 -7.47232
35 71 -6.86679
36 71 -6.24555
37 71 -5.66327
38 71 -5.05687
39 71 -4.44988
40 71 -3.86577
41 71 -3.3593
42 71 -2.8759
43 71 -2.44605
44 71 -2.03932
45 71 -1.67142
46 71 -1.34346
47 71 -1.05472
48 71 -0.764362
49 71 -0.470129
50 71 -0.236127
51 71 0.0130079
52 71 0.200484
53 71 0.373541
54 71 0.512823
55 71 0.626894
56 71 0.722026
57 71 0.771518
58 71 0.789481
59 71 0.81064
60 71 0.881612
61 71 0.93564
62 71 0.992536
63 71 1.00962
64 71 1.04223
65 71 1.04563
66 71 1.04417
67 71 1.02404
68 71 0.950555
69 71 0.821696
70 71 0.631503
71 71 0.362172
72 71 0.0777665
73 71 -0.261791
74 71 -0.684382
75 71 -1.14241
76 71 -1.60026
77 71 -2.08732
78 71 -2.6849
79 71 -3.29141
80 71 -3.97712
81 71 -4.71902
82 71 -5.34607
83 71 -5.93551
84 71 -6.47434
85 71 -6.99735
86 71 -7.5306
87 71 -8.1087
88 71 -8.76969
89 71 -9.56971
90 71 -10.4786
91 71 -11.5345
92 71 -12.7799
93 71 -14.1955
94 71 -16.0399
95 71 -18.5151
96 71 -21.8838
97 71 -21.8838
98 71 -21.8838
99 71 -21.8838
100 71 -21.8838
101 71 -21.8838
102 71 -21.8838
103 71 -21.8838
104 71 -21.8838
105 71 -21.8838
106 71 -21.8838
107 71 -21.8838
108 71 -21.8838
109 71 -21.8838
110 71 -21.8838
111 71 -21.8838
112 71 -21.8838
113 71 -21.8838
114 71 -21.8838
115 71 -21.8838
116 71 -21.8838
117 71 -21.8838
118 71 -21.8838
119 71 -21.8838
0 72 -21.8838
1 72 -21.8838
2 72 -21.8838
3 72 -21.8838
4 72 -21.8838
5 72 -21.8838
6 72 -21.8838
7 72 -21.8838
8 72 -21.8838
9 72 -21.8838
10 72 -21.8838
11 72 -21.8838
12 72 -21.8838
13 72 -21.8838
14 72 -21.8838
15 72 -21.8838
16 72 -21.8838
17 72 -21.8838
18 72 -21.8838
19 72 -21.8838
20 72 -21.8838
21 72 -21.8838
22 72 -21.8838
23 72 -21.8838
24 72 -21.8838
25 72 -16.8247
26 72 -14.2885
27 72 -13.0443
28 72 -12.0618
29 72 -11.134
30 72 -10.2546
31 72 -9.56036
32 72 -8.90277
33 72 -8.25465
34 72 -7.59848
35 72 -6.9532
36 72 -6.30628
37 72 -5.70843
38 72 -5.08669
39 72 -4.46875
40 72 -3.88076
41 72 -3.34871
42 72 -2.85231
43 72 -2.40734
44 72 -1.99552
45 72 -1.60385
46 72 -1.24697
47 72 -0.924547
48 72 -0.625452
49 72 -0.33659
50 72 -0.0954759
51 72 0.141956
52 72 0.339757
53 72 0.496199
54 72 0.633942
55 72 0.734331
56 72 0.812252
57 72 0.847826
58 72 0.861365
59 72 0.879465
60 72 0.921185
61 72 0.971128
62 72 1.0351
63 72 1.07979
64 72 1.10089
65 72 1.13492
66 72 1.15847
67 72 1.14633
68 72 1.09162
69 72 0.978248
70 72 0.809414
71 72 0.569789
72 72 0.304982
73 72 -0.0603736
74 72 -0.437655
75 72 -0.871
76 72 -1.31812
77 72 -1.8604
78 72 -2.45546
79 72 -3.08351
80 72 -3.80296
81 72 -4.56145
82 72 -5.22657
83 72 -5.85092
84 72 -6.40158
85 72 -6.92534
86 72 -7.45542
87 72 -8.05113
88 72 -8.73529
89 72 -9.52045
90 72 -10.4443
91 72 -11.4954
92 72 -12.7712
93 72 -14.2659
94 72 -16.206
95 72 -18.9136
96 72 -21.8838
97 72 -21.8838
98 72 -21.8838
99 72 -21.8838
100 72 -21.8838
101 72 -21.8838
102 72 -21.8838
103 72 -21.8838
104 72 -21.8838
105 72 -21.8838
106 72 -21.8838
107 72 -21.8838
108 72 -21.8838
109 72 -21.8838
110 72 -21.8838
111 72 -21.8838
112 72 -21.8838
113 72 -21.8838
114 72 -21.8838
115 72 -21.8838
116 72 -21.8838
117 72 -21.8838
118 72 -21.8838
119 72 -21.8838
0 73 -21.8838
1 73 -21.8838
2 73 -21.8838
3 73 -21.8838
4 73 -21.8838
5 73 -21.8838
6 73 -21.8838
7 73 -21.8838
8 73 -21.8838
9 73 -21.8838
10 73 -21.8838
11 73 -21.8838
12 73 -21.8838
13 73 -21.8838
14 73 -21.8838
15 73 -21.8838
16 73 -21.8838
17 73 -21.8838
18 73 -21.8838
19 73 -21.8838
20 73 -21.8838
21 73 -21.8838
22 73 -21.8838
23 73 -21.8838
24 73 -21.8838
25 73 -17.3393
26 73 -14.8473
27 73 -13.4424
28 73 -12.4503
29 73 -11.4836
30 73 -10.5667
31 73 -9.83237
32 73 -9.12333
33 73 -8.42468
34 73 -7.74996
35 73 -7.0648
36 73 -6.42108
37 73 -5.78647
38 73 -5.12541
39 73 -4.50553
40 73 -3.9054
41 73 -3.36451
42 73 -2.86187
43 73 -2.39395
44 73 -1.97195
45 73 -1.55131
46 73 -1.19309
47 73 -0.861717
48 73 -0.52146
49 73 -0.22654
50 73 0.0299077
51 73 0.261523
52 73 0.437672
53 73 0.593258
54 73 0.717951
55 73 0.8198
56 73 0.901577
57 73 0.920293
58 73 0.91248
59 73 0.914119
60 73 0.948486
61 73 0.993186
62 73 1.04606
63 73 1.11256
64 73 1.14743
65 73 1.18032
66 73 1.22736
67 73 1.24199
68 73 1.20286
69 73 1.09948
70 73 0.959166
71 73 0.751289
72 73 0.495133
73 73 0.166157
74 73 -0.202529
75 73 -0.617752
76 73 -1.08936
77 73 -1.63495
78 73 -2.23084
79 73 -2.91144
80 73 -3.64936
81 73 -4.44362
82 73 -5.15412
83 73 -5.78921
84 73 -6.35208
85 73 -6.86629
86 73 -7.41362
87 73 -8.02365
88 73 -8.71096
89 73 -9.51329
90 73 -10.4527
91 73 -11.5446
92 73 -12.7776
93 73 -14.3585
94 73 -16.3362
95 73 -20.1252
96 73 -21.8838
97 73 -21.8838
98 73 -21.8838
99 73 -21.8838
100 73 -21.8838
101 73 -21.8838
102 73 -21.8838
103 73 -21.8838
104 73 -21.8838
105 73 -21.8838
106 73 -21.8838
107 73 -21.8838
108 73 -21.8838
109 73 -21.8838
110 73 -21.8838
111 73 -21.8838
112 73 -21.8838
113 73 -21.8838
114 73 -21.8838
115 73 -21.8838
116 73 -21.8838
117 73 -21.8838
118 73 -21.8838
119 73 -21.8838
0 74 -21.8838
1 74 -21.8838
2 74 -21.8838
3 74 -21.8838
4 74 -21.8838
5 74 -21.8838
6 74 -21.8838
7 74 -21.8838
8 74 -21.8838
9 74 -21.8838
10 74 -21.8838
11 74 -21.8838
12 74 -21.8838
13 74 -21.8838
14 74 -21.8838
15 74 -21.8838
16 74 -21.8838
17 74 -21.8838
18 74 -21.8838
19 74 -21.8838
20 74 -21.8838
21 74 -21.8838
22 74 -21.8838
23 74 -21.8838
24 74 -21.8838
25 74 -18.1585
26 74 -15.4584
27 74 -13.9015
28 74 -12.8777
29 74 -11.8502
30 74 -10.9326
31 74 -10.1197
32 74 -9.35506
33 74 -8.61986
34 74 -7.8942
35 74 -7.21932
36 74 -6.52762
37 74 -5.85122
38 74 -5.18941
39 74 -4.54815
40 74 -3.9584
41 74 -3.38804
42 74 -2.87254
43 74 -2.43217
44 74 -1.97124
45 74 -1.57155
46 74 -1.20287
47 74 -0.842154
48 74 -0.500583
49 74 -0.162513
50 74 0.109911
51 74 0.343623
52 74 0.54344
53 74 0.697425
54 74 0.802983
55 74 0.884185
56 74 0.95838
57 74 0.990136
58 74 0.963651
59 74 0.958979
60 74 0.979921
61 74 1.00301
62 74 1.02839
63 74 1.09092
64 74 1.15834
65 74 1.20003
66 74 1.24708
67 74 1.26415
68 74 1.24987
69 74 1.16953
70 74 1.07065
71 74 0.876085
72 74 0.626935
73 74 0.343672
74 74 0.00745039
75 74 -0.403574
76 74 -0.883587
77 74 -1.42687
78 74 -2.05117
79 74 -2.75599
80 74 -3.52127
81 74 -4.34234
82 74 -5.10404
83 74 -5.7466
84 74 -6.33314
85 74 -6.8658
86 74 -7.42988
87 74 -8.04605
88 74 -8.73818
89 74 -9.53613
90 74 -10.5186
91 74 -11.5873
92 74 -12.8982
93 74 -14.4997
94 74 -16.6845
95 74 -21.1888
96 74 -21.8838
97 74 -21.8838
98 74 -21.8838
99 74 -21.8838
100 74 -21.8838
101 74 -21.8838
102 74 -21.8838
103 74 -21.8838
104 74 -21.8838
105 74 -21.8838
106 74 -21.8838
107 74 -21.8838
108 74 -21.8838
109 74 -21.8838
110 74 -21.8838
111 74 -21.8838
112 74 -21.8838
113 74 -21.8838
114 74 -21.8838
115 74 -21.8838
116 74 -21.8838
117 74 -21.8838
118 74 -21.8838
119 74 -21.8838
0 75 -21.8838
1 75 -21.8838
2 75 -21.8838
3 75 -21.8838
4 75 -21.8838
5 75 -21.8838
6 75 -21.8838
7 75 -21.8838
8 75 -21.8838
9 75 -21.8838
10 75 -21.8838
11 75 -21.8838
12 75 -21.8838
13 75 -21.8838
14 75 -21.8838
15 75 -21.8838
16 75 -21.8838
17 75 -21.8838
18 75 -21.8838
19 75 -21.8838
20 75 -21.8838
21 75 -21.8838
22 75 -21.8838
23 75 -21.8838
24 75 -21.8838
25 75 -19.1304
26 75 -16.0755
27 75 -14.4319
28 75 -13.3902
29 75 -12.3283
30 75 -11.3319
31 75 -10.4569
32 75 -9.62853
33 75 -8.81521
34 75 -8.06418
35 75 -7.3434
36 75 -6.65394
37 75 -5.94727
38 75 -5.27227
39 75 -4.63296
40 75 -4.01421
41 75 -3.44565
42 75 -2.95326
43 75 -2.49304
44 75 -2.03628
45 75 -1.61737
46 75 -1.23808
47 75 -0.882784
48 75 -0.542776
49 75 -0.196338
50 75 0.108428
51 75 0.36581
52 75 0.579111
53 75 0.747112
54 75 0.873385
55 75 0.958985
56 75 1.01728
57 75 1.02992
58 75 1.00833
59 75 0.98856
60 75 0.98872
61 75 0.997149
62 75 1.02868
63 75 1.06656
64 75 1.09915
65 75 1.16968
66 75 1.23649
67 75 1.2728
68 75 1.26764
69 75 1.19548
70 75 1.08934
71 75 0.923318
72 75 0.699891
73 75 0.434134
74 75 0.15094
75 75 -0.203262
76 75 -0.694632
77 75 -1.25601
78 75 -1.9031
79 75 -2.61906
80 75 -3.44009
81 75 -4.27363
82 75 -5.03848
83 75 -5.71231
84 75 -6.33624
85 75 -6.89787
86 75 -7.47866
87 75 -8.1082
88 75 -8.81159
89 75 -9.63617
90 75 -10.6016
91 75 -11.6874
92 75 -12.9788
93 75 -14.692
94 75 -17.0314
95 75 -21.8838
96 75 -21.8838
97 75 -21.8838
98 75 -21.8838
99 75 -21.8838
100 75 -21.8838
101 75 -21.8838
102 75 -21.8838
103 75 -21.8838
104 75 -21.8838
105 75 -21.8838
106 75 -21.8838
107 75 -21.8838
108 75 -21.8838
109 75 -21.8838
110 75 -21.8838
111 75 -21.8838
112 75 -21.8838
113 75 -21.8838
114 75 -21.8838
115 75 -21.8838
116 75 -21.8838
117 75 -21.8838
118 75 -21.8838
119 75 -21.8838
0 76 -21.8838
1 76 -21.8838
2 76 -21.8838
3 76 -21.8838
4 76 -21.8838
5 76 -21.8838
6 76 -21.8838
7 76 -21.8838
8 76 -21.8838
9 76 -21.8838
10 76 -21.8838
11 76 -21.8838
12 76 -21.8838
13 76 -21.8838
14 76 -21.8838
15 76 -21.8838
16 76 -21.8838
17 76 -21.8838
18 76 -21.8838
19 76 -21.8838
20 76 -21.8838
21 76 -21.8838
22 76 -21.8838
23 76 -21.8838
24 76 -21.8838
25 76 -21.8838
26 76 -17.0774
27 76 -15.1687
28 76 -14.0049
29 76 -12.869
30 76 -11.7847
31 76 -10.8347
32 76 -9.92731
33 76 -9.05838
34 76 -8.23407
35 76 -7.49175
36 76 -6.76155
37 76 -6.07509
38 76 -5.37417
39 76 -4.71117
40 76 -4.11483
41 76 -3.54871
42 76 -3.04339
43 76 -2.56595
44 76 -2.12385
45 76 -1.70784
46 76 -1.30208
47 76 -0.958295
48 76 -0.623128
49 76 -0.297691
50 76 0.0274317
51 76 0.302495
52 76 0.548263
53 76 0.73679
54 76 0.872544
55 76 0.981627
56 76 1.05076
57 76 1.06976
58 76 1.05768
59 76 1.02701
60 76 0.988945
61 76 0.985311
62 76 1.004
63 76 1.01618
64 76 1.0368
65 76 1.09731
66 76 1.18832
67 76 1.22726
68 76 1.21961
69 76 1.17288
70 76 1.08144
71 76 0.930216
72 76 0.745883
73 76 0.491972
74 76 0.230667
75 76 -0.048984
76 76 -0.514462
77 76 -1.10444
78 76 -1.7655
79 76 -2.50848
80 76 -3.33665
81 76 -4.18682
82 76 -4.98068
83 76 -5.69864
84 76 -6.35001
85 76 -6.93412
86 76 -7.54635
87 76 -8.21227
88 76 -8.93658
89 76 -9.76116
90 76 -10.7175
91 76 -11.8218
92 76 -13.1228
93 76 -14.8736
94 76 -17.36
95 76 -21.8838
96 76 -21.8838
97 76 -21.8838
98 76 -21.8838
99 76 -21.8838
100 76 -21.8838
101 76 -21.8838
102 76 -21.8838
103 76 -21.8838
104 76 -21.8838
105 76 -21.8838
106 76 -21.8838
107 76 -21.8838
108 76 -21.8838
109 76 -21.8838
110 76 -21.8838
111 76 -21.8838
112 76 -21.8838
113 76 -21.8838
114 76 -21.8838
115 76 -21.8838
116 76 -21.8838
117 76 -21.8838
118 76 -21.8838
119 76 -21.8838
0 77 -21.8838
1 77 -21.8838
2 77 -21.8838
3 77 -21.8838
4 77 -21.8838
5 77 -21.8838
6 77 -21.8838
7 77 -21.8838
8 77 -21.8838
9 77 -21.8838
10 77 -21.8838
11 77 -21.8838
12 77 -21.8838
13 77 -21.8838
14 77 -21.8838
15 77 -21.8838
16 77 -21.8838
17 77 -21.8838
18 77 -21.8838
19 77 -21.8838
20 77 -21.8838
21 77 -21.8838
22 77 -21.8838
23 77 -21.8838
24 77 -21.8838
25 77 -21.8838
26 77 -18.227
27 77 -15.8987
28 77 -14.6786
29 77 -13.4458
30 77 -12.2763
31 77 -11.2617
32 77 -10.2836
33 77 -9.35058
34 77 -8.46769
35 77 -7.65453
36 77 -6.90822
37 77 -6.18873
38 77 -5.50689
39 77 -4.84867
40 77 -4.23831
41 77 -3.66514
42 77 -3.16005
43 77 -2.70092
44 77 -2.2472
45 77 -1.80461
46 77 -1.42564
47 77 -1.09261
48 77 -0.759812
49 77 -0.418813
50 77 -0.112492
51 77 0.160657
52 77 0.418124
53 77 0.624871
54 77 0.79254
55 77 0.938421
56 77 1.02598
57 77 1.08361
58 77 1.09516
59 77 1.04482
60 77 0.996555
61 77 0.961396
62 77 0.943864
63 77 0.949285
64 77 0.96416
65 77 0.989555
66 77 1.03753
67 77 1.13864
68 77 1.1579
69 77 1.12766
70 77 1.04446
71 77 0.903331
72 77 0.716648
73 77 0.484765
74 77 0.243213
75 77 0.02461
76 77 -0.36561
77 77 -0.97056
78 77 -1.64383
79 77 -2.42027
80 77 -3.25266
81 77 -4.09343
82 77 -4.91847
83 77 -5.66267
84 77 -6.36849
85 77 -6.96738
86 77 -7.61125
87 77 -8.31438
88 77 -9.07429
89 77 -9.87373
90 77 -10.8571
91 77 -11.9388
92 77 -13.2828
93 77 -15.083
94 77 -17.6898
95 77 -21.8838
96 77 -21.8838
97 77 -21.8838
98 77 -21.8838
99 77 -21.8838
100 77 -21.8838
101 77 -21.8838
102 77 -21.8838
103 77 -21.8838
104 77 -21.8838
105 77 -21.8838
106 77 -21.8838
107 77 -21.8838
108 77 -21.8838
109 77 -21.8838
110 77 -21.8838
111 77 -21.8838
112 77 -21.8838
113 77 -21.8838
114 77 -21.8838
115 77 -21.8838
116 77 -21.8838
117 77 -21.8838
118 77 -21.8838
119 77 -21.8838
0 78 -21.8838
1 78 -21.8838
2 78 -21.8838
3 78 -21.8838
4 78 -21.8838
5 78 -21.8838
6 78 -21.8838
7 78 -21.8838
8 78 -21.8838
9 78 -21.8838
10 78 -21.8838
11 78 -21.8838
12 78 -21.8838
13 78 -21.8838
14 78 -21.8838
15 78 -21.8838
16 78 -21.8838
17 78 -21.8838
18 78 -21.8838
19 78 -21.8838
20 78 -21.8838
21 78 -21.8838
22 78 -21.8838
23 78 -21.8838
24 78 -21.8838
25 78 -21.8838
26 78 -19.2217
27 78 -16.7624
28 78 -15.5449
29 78 -14.1296
30 78 -12.867
31 78 -11.7581
32 78 -10.6948
33 78 -9.68849
34 78 -8.74931
35 78 -7.88917
36 78 -7.08163
37 78 -6.32808
38 78 -5.64702
39 78 -5.00334
40 78 -4.3974
41 78 -3.8353
42 78 -3.31714
43 78 -2.85031
44 78 -2.384
45 78 -1.9655
46 78 -1.59137
47 78 -1.23284
48 78 -0.92255
49 78 -0.593193
50 78 -0.306531
51 78 -0.0397827
52 78 0.26019
53 78 0.499006
54 78 0.697817
55 78 0.863028
56 78 0.990194
57 78 1.0735
58 78 1.0896
59 78 1.02756
60 78 0.957733
61 78 0.908062
62 78 0.85783
63 78 0.851803
64 78 0.843904
65 78 0.829161
66 78 0.809332
67 78 0.939675
68 78 1.03755
69 78 1.04077
70 78 0.962676
71 78 0.838348
72 78 0.657896
73 78 0.427351
74 78 0.199799
75 78 -0.0160933
76 78 -0.354026
77 78 -0.857303
78 78 -1.57116
79 78 -2.36827
80 78 -3.18736
81 78 -4.0212
82 78 -4.87592
83 78 -5.66904
84 78 -6.39935
85 78 -7.0392
86 78 -7.70333
87 78 -8.43591
88 78 -9.20648
89 78 -10.042
90 78 -11.0173
91 78 -12.1084
92 78 -13.4414
93 78 -15.3254
94 78 -18.2605
95 78 -21.8838
96 78 -21.8838
97 78 -21.8838
98 78 -21.8838
99 78 -21.8838
100 78 -21.8838
101 78 -21.8838
102 78 -21.8838
103 78 -21.8838
104 78 -21.8838
105 78 -21.8838
106 78 -21.8838
107 78 -21.8838
108 78 -21.8838
109 78 -21.8838
110 78 -21.8838
111 78 -21.8838
112 78 -21.8838
113 78 -21.8838
114 78 -21.8838
115 78 -21.8838
116 78 -21.8838
117 78 -21.8838
118 78 -21.8838
119 78 -21.8838
0 79 -21.8838
1 79 -21.8838
2 79 -21.8838
3 79 -21.8838
4 79 -21.8838
5 79 -21.8838
6 79 -21.8838
7 79 -21.8838
8 79 -21.8838
9 79 -21.8838
10 79 -21.8838
11 79 -21.8838
12 79 -21.8838
13 79 -21.8838
14 79 -21.8838
15 79 -21.8838
16 79 -21.8838
17 79 -21.8838
18 79 -21.8838
19 79 -21.8838
20 79 -21.8838
21 79 -21.8838
22 79 -21.8838
23 79 -21.8838
24 79 -21.8838
25 79 -21.8838
26 79 -21.0608
27 79 -17.6524
28 79 -16.4692
29 79 -14.9245
30 79 -13.5425
31 79 -12.3037
32 79 -11.153
33 79 -10.0762
34 79 -9.06804
35 79 -8.13666
36 79 -7.29946
37 79 -6.52123
38 79 -5.82444
39 79 -5.17759
40 79 -4.56956
41 79 -4.02173
42 79 -3.49935
43 79 -3.04077
44 79 -2.59253
45 79 -2.14842
46 79 -1.77364
47 79 -1.43155
48 79 -1.12155
49 79 -0.802951
50 79 -0.527379
51 79 -0.250421
52 79 0.0588826
53 79 0.335858
54 79 0.567141
55 79 0.767123
56 79 0.938835
57 79 1.02467
58 79 1.03277
59 79 1.00333
60 79 0.89405
61 79 0.827892
62 79 0.783663
63 79 0.727318
64 79 0.682231
65 79 0.586539
66 79 0.502915
67 79 0.587764
68 79 0.771621
69 79 0.847896
70 79 0.833498
71 79 0.73306
72 79 0.546265
73 79 0.329723
74 79 0.105096
75 79 -0.126874
76 79 -0.395026
77 79 -0.860121
78 79 -1.54267
79 79 -2.36391
80 79 -3.1637
81 79 -3.98278
82 79 -4.81064
83 79 -5.65312
84 79 -6.40433
85 79 -7.09935
86 79 -7.79671
87 79 -8.5348
88 79 -9.33061
89 79 -10.218
90 79 -11.1746
91 79 -12.2929
92 79 -13.6154
93 79 -15.4342
94 79 -19.272
95 79 -21.8838
96 79 -21.8838
97 79 -21.8838
98 79 -21.8838
99 79 -21.8838
100 79 -21.8838
101 79 -21.8838
102 79 -21.8838
103 79 -21.8838
104 79 -21.8838
105 79 -21.8838
106 79 -21.8838
107 79 -21.8838
108 79 -21.8838
109 79 -21.8838
110 79 -21.8838
111 79 -21.8838
112 79 -21.8838
113 79 -21.8838
114 79 -21.8838
115 79 -21.8838
116 79 -21.8838
117 79 -21.8838
118 79 -21.8838
119 79 -21.8838
0 80 -21.8838
1 80 -21.8838
2 80 -21.8838
3 80 -21.8838
4 80 -21.8838
5 80 -21.8838
6 80 -21.8838
7 80 -21.8838
8 80 -21.8838
9 80 -21.8838
10 80 -21.8838
11 80 -21.8838
12 80 -21.8838
13 80 -21.8838
14 80 -21.8838
15 80 -21.8838
16 80 -21.8838
17 80 -21.8838
18 80 -21.8838
19 80 -21.8838
20 80 -21.8838
21 80 -21.8838
22 80 -21.8838
23 80 -21.8838
24 80 -21.8838
25 80 -21.8838
26 80 -21.8838
27 80 -19.3365
28 80 -17.6078
29 80 -15.8924
30 80 -14.2968
31 80 -12.9338
32 80 -11.6599
33 80 -10.4799
34 80 -9.41113
35 80 -8.43853
36 80 -7.58599
37 80 -6.77795
38 80 -6.06121
39 80 -5.39104
40 80 -4.78413
41 80 -4.23996
42 80 -3.70916
43 80 -3.23879
44 80 -2.80461
45 80 -2.3736
46 80 -2.00666
47 80 -1.66669
48 80 -1.36317
49 80 -1.06479
50 80 -0.785086
51 80 -0.467869
52 80 -0.142321
53 80 0.164529
54 80 0.430839
55 80 0.651892
56 80 0.839102
57 80 0.937911
58 80 0.952867
59 80 0.921998
60 80 0.839099
61 80 0.72919
62 80 0.652722
63 80 0.545818
64 80 0.440731
65 80 0.292599
66 80 0.16122
67 80 0.198828
68 80 0.389427
69 80 0.532545
70 80 0.585309
71 80 0.505271
72 80 0.367388
73 80 0.186775
74 80 -0.032838
75 80 -0.27948
76 80 -0.548816
77 80 -0.951361
78 80 -1.55627
79 80 -2.36017
80 80 -3.16701
81 80 -3.96407
82 80 -4.78768
83 80 -5.64192
84 80 -6.4345
85 80 -7.16409
86 80 -7.8705
87 80 -8.64591
88 80 -9.46995
89 80 -10.3614
90 80 -11.3819
91 80 -12.484
92 80 -13.8116
93 80 -15.6778
94 80 -19.9849
95 80 -21.8838
96 80 -21.8838
97 80 -21.8838
98 80 -21.8838
99 80 -21.8838
100 80 -21.8838
101 80 -21.8838
102 80 -21.8838
103 80 -21.8838
104 80 -21.8838
105 80 -21.8838
106 80 -21.8838
107 80 -21.8838
108 80 -21.8838
109 80 -21.8838
110 80 -21.8838
111 80 -21.8838
112 80 -21.8838
113 80 -21.8838
114 80 -21.8838
115 80 -21.8838
116 80 -21.8838
117 80 -21.8838
118 80 -21.8838
119 80 -21.8838
0 81 -21.8838
1 81 -21.8838
2 81 -21.8838
3 81 -21.8838
4 81 -21.8838
5 81 -21.8838
6 81 -21.8838
